NORM_ASCII 
  3110  6052 
3 2113 2115 2114 
3 2113 2114 2071 
3 2086 2116 2071 
3 2086 2091 2116 
3 2113 2071 2116 
3 2113 2116 2091 
3 2086 2117 2077 
3 2086 2071 2117 
3 2073 2117 2071 
3 2087 2090 2086 
3 2087 2085 2090 
3 2118 2119 2120 
3 2121 2048 2122 
3 2118 2123 2124 
3 2122 2124 2123 
3 2122 2011 2124 
3 2049 2125 2126 
3 2127 2125 2052 
3 2127 2126 2125 
3 2050 2125 2049 
3 2050 2052 2125 
3 656 655 2128 
3 2049 2126 2129 
3 2049 2129 655 
3 2128 655 2129 
3 2112 2092 2130 
3 2112 2091 2092 
3 2112 2131 2132 
3 2112 2130 2131 
3 2112 2132 2133 
3 2134 2115 2133 
3 2133 2115 2113 
3 2133 2113 2112 
3 2135 2136 2137 
3 2138 2139 2140 
3 2141 2132 2142 
3 2135 2143 2136 
3 2141 2143 2144 
3 2097 2145 2146 
3 2063 2147 2148 
3 2145 2068 2148 
3 2149 2150 2147 
3 2145 2150 2146 
3 2118 2151 2123 
3 2063 2152 2147 
3 2151 2152 2123 
3 2149 2147 2153 
3 2151 2154 2153 
3 2020 662 2155 
3 2020 2155 2156 
3 2020 2156 2157 
3 2020 2157 2120 
3 2158 2157 2156 
3 2158 2120 2157 
3 659 658 2155 
3 659 2155 662 
3 667 656 2159 
3 2128 2159 656 
3 2128 2160 2159 
3 666 667 2160 
3 2159 2160 667 
3 2128 2161 2160 
3 2003 2059 2061 
3 2003 2002 2059 
3 2135 2162 2163 
3 2164 2162 2165 
3 2164 2163 2162 
3 2135 2163 2166 
3 2167 2144 2166 
3 2167 2168 691 
3 2169 2168 2163 
3 2169 691 2168 
3 2164 2170 2171 
3 2164 2171 2163 
3 2169 2171 2170 
3 2169 2163 2171 
3 2155 2172 2156 
3 2173 2172 677 
3 2173 2156 2172 
3 658 2172 2155 
3 658 677 2172 
3 2174 2175 2176 
3 2127 2175 2126 
3 2161 2175 2174 
3 2161 2126 2175 
3 2174 2176 2177 
3 2178 2179 2177 
3 666 2160 2180 
3 2180 2181 2182 
3 2181 2177 2179 
3 2181 2174 2177 
3 2180 2160 2161 
3 2127 2052 2183 
3 2127 2183 2080 
3 2057 2183 2052 
3 2057 2080 2183 
3 2127 2080 2184 
3 2185 2176 2184 
3 2175 2184 2176 
3 2175 2127 2184 
3 2081 2079 2057 
3 2081 2075 2079 
3 2185 2186 2176 
3 2178 2186 2187 
3 2188 2187 2189 
3 2186 2189 2187 
3 2186 2185 2189 
3 2076 2190 2185 
3 2076 2072 2190 
3 2076 2185 2080 
3 2184 2080 2185 
3 2191 2150 2149 
3 2191 2146 2150 
3 2192 2153 2154 
3 2192 2149 2153 
3 2191 2149 2193 
3 2191 2193 2194 
3 2192 2193 2149 
3 2192 2194 2193 
3 2195 2196 2197 
3 2198 2197 2199 
3 2196 2199 2197 
3 2191 2194 2199 
3 2198 2199 2194 
3 2097 2146 2200 
3 2200 2191 2199 
3 2200 2146 2191 
3 2200 2196 2201 
3 2200 2199 2196 
3 2133 2132 2202 
3 2133 2202 2134 
3 2141 2202 2132 
3 2188 2134 2203 
3 2188 2203 2187 
3 2204 2203 2134 
3 2141 2144 2205 
3 2204 2134 2205 
3 671 2206 2207 
3 2208 2206 2209 
3 668 2210 671 
3 668 2209 2210 
3 2206 671 2210 
3 2206 2210 2209 
3 2211 673 2212 
3 671 2207 2213 
3 2212 673 2213 
3 669 2213 673 
3 669 671 2213 
3 2214 2215 2216 
3 690 2215 691 
3 2167 691 2217 
3 2215 2217 691 
3 2215 2214 2217 
3 2167 2218 2144 
3 2204 2218 2214 
3 2214 2216 2219 
3 2220 2219 2216 
3 2204 2214 2221 
3 2219 2221 2214 
3 2219 2187 2221 
3 2173 2211 2222 
3 2192 2154 2222 
3 2192 2223 2194 
3 2212 2223 2211 
3 2212 2194 2223 
3 2212 2198 2194 
3 2224 2198 2207 
3 2224 2197 2198 
3 673 2211 2225 
3 673 2225 677 
3 2173 2225 2211 
3 2173 677 2225 
3 2158 2222 2154 
3 695 2226 2179 
3 2181 2179 2226 
3 2181 2226 2182 
3 2226 2227 2182 
3 666 2227 664 
3 682 2227 2226 
3 682 664 2227 
3 2180 2182 666 
3 2227 666 2182 
3 682 2226 2228 
3 682 2228 694 
3 695 2228 2226 
3 695 694 2228 
3 683 2229 681 
3 679 681 2229 
3 2229 683 685 
3 2229 685 2230 
3 2229 2230 2231 
3 2229 2231 679 
3 2096 2068 2145 
3 2096 2145 2097 
3 2097 2232 2098 
3 2232 2097 2200 
3 2232 2200 2201 
3 2233 2234 2235 
3 2236 2235 2234 
3 2195 2237 2238 
3 2236 2201 2238 
3 2237 2239 2240 
3 2195 2241 2239 
3 2195 2239 2237 
3 2196 2238 2201 
3 2196 2195 2238 
3 2195 2197 2241 
3 2224 2241 2197 
3 2224 2206 2208 
3 2224 2207 2206 
3 2208 2209 2242 
3 2208 2242 2243 
3 2244 2245 2170 
3 689 2246 687 
3 2245 2246 2170 
3 2245 687 2246 
3 2169 2170 2246 
3 2169 2246 689 
3 2169 689 692 
3 2169 692 691 
3 2247 2248 2240 
3 2233 2248 713 
3 709 2248 2247 
3 709 713 2248 
3 2239 2241 2249 
3 2239 2249 2250 
3 2243 2249 2241 
3 2243 2250 2249 
3 2247 2240 2251 
3 2239 2250 2251 
3 2239 2251 2240 
3 2250 2252 2253 
3 2253 2247 2251 
3 2253 2251 2250 
3 2252 2250 2254 
3 2243 2254 2250 
3 2243 2242 2254 
3 2236 2234 2255 
3 2236 2255 2256 
3 2232 2257 2256 
3 2232 2201 2257 
3 2236 2256 2257 
3 2236 2257 2201 
3 2232 2256 2258 
3 2232 2258 2098 
3 702 2259 705 
3 706 705 2259 
3 2260 706 2261 
3 2259 2261 706 
3 694 2260 2261 
3 685 2262 686 
3 702 686 2262 
3 2262 2263 2261 
3 2262 685 2263 
3 2263 694 2261 
3 2263 685 683 
3 684 686 2264 
3 699 2264 686 
3 699 701 2264 
3 685 684 2230 
3 2178 2187 2219 
3 2216 2265 2220 
3 693 2220 2265 
3 704 2265 2216 
3 2177 2186 2178 
3 2177 2176 2186 
3 2178 2266 2179 
3 693 2266 2220 
3 2219 2220 2178 
3 2266 2178 2220 
3 2215 690 704 
3 2215 704 2216 
3 716 726 2267 
3 716 2267 714 
3 688 2267 726 
3 688 714 2267 
3 688 726 2268 
3 688 2268 689 
3 692 2268 726 
3 692 689 2268 
3 688 687 2269 
3 688 2269 714 
3 2270 714 2269 
3 692 726 2271 
3 692 2271 690 
3 703 690 2271 
3 682 694 683 
3 2263 683 694 
3 694 693 2260 
3 2265 2260 693 
3 2266 693 695 
3 2266 695 2179 
3 2272 2273 2274 
3 2270 2275 2273 
3 2274 2273 2275 
3 2274 2245 2276 
3 720 2273 2234 
3 720 722 2270 
3 720 2270 2273 
3 2240 2277 2237 
3 2235 2237 2277 
3 2235 2277 2233 
3 2248 2277 2240 
3 2248 2233 2277 
3 721 2233 713 
3 721 720 2233 
3 2234 2233 720 
3 702 705 2278 
3 702 2278 700 
3 723 2278 705 
3 723 700 2278 
3 2262 2259 702 
3 2262 2261 2259 
3 698 700 2279 
3 698 2279 696 
3 718 2279 700 
3 718 696 2279 
3 706 2280 704 
3 706 2260 2280 
3 2265 704 2280 
3 2265 2280 2260 
3 698 697 2281 
3 698 2281 701 
3 697 696 2282 
3 2283 2282 696 
3 2283 2284 2282 
3 2282 2284 697 
3 718 717 696 
3 2283 696 717 
3 708 707 2285 
3 2283 2285 2284 
3 2283 708 2285 
3 709 2247 710 
3 2253 710 2247 
3 711 708 2286 
3 711 2286 717 
3 2283 2286 708 
3 2283 717 2286 
3 719 711 717 
3 719 722 711 
3 2275 2269 687 
3 2275 2270 2269 
3 2270 722 715 
3 2270 715 714 
3 2271 726 725 
3 2271 725 703 
3 430 417 1479 
3 430 1479 431 
3 719 715 722 
3 737 739 97 
3 819 160 907 
3 896 895 898 
3 1176 321 1205 
3 1176 1205 1206 
3 1208 336 351 
3 1230 337 1234 
3 1230 1234 1232 
3 1277 1278 1271 
3 1956 621 1938 
3 1945 635 2030 
3 1945 2030 602 
3 2224 2208 2243 
3 2224 2243 2241 
3 871 2287 846 
3 869 2287 944 
3 869 846 2287 
3 942 2287 871 
3 942 944 2287 
3 1370 1372 2288 
3 1370 2288 1375 
3 1414 2288 1372 
3 1370 1312 2289 
3 1370 2289 1303 
3 1231 2289 1312 
3 1231 1303 2289 
3 1407 1364 1363 
3 1407 1363 1408 
3 1413 2288 1414 
3 1377 1375 2288 
3 1377 2288 1413 
3 2290 2291 2292 
3 2292 2293 2294 
3 1602 1623 2295 
3 484 482 2296 
3 484 2296 1631 
3 2297 2296 482 
3 2297 1631 2296 
3 1693 500 2298 
3 1697 2298 500 
3 2298 2299 2300 
3 2298 2300 1693 
3 531 532 2301 
3 531 2301 1756 
3 1768 2301 532 
3 1768 1756 2301 
3 519 538 517 
3 1680 2302 1786 
3 540 548 2303 
3 2302 2303 548 
3 2302 517 2303 
3 2303 538 540 
3 2303 517 538 
3 646 663 661 
3 646 661 647 
3 735 736 740 
3 735 740 737 
3 737 741 2304 
3 737 2304 738 
3 740 742 2305 
3 740 2305 741 
3 2306 741 2305 
3 778 744 738 
3 778 116 744 
3 60 762 763 
3 60 763 73 
3 140 2307 736 
3 140 764 2307 
3 765 736 2307 
3 767 765 2307 
3 768 2308 764 
3 768 767 2308 
3 2307 764 2308 
3 2307 2308 767 
3 2304 779 2309 
3 2304 2309 738 
3 778 2309 779 
3 778 738 2309 
3 2304 741 2310 
3 2306 2310 741 
3 2304 2310 2311 
3 2304 2311 779 
3 780 2311 2310 
3 780 779 2311 
3 780 2310 885 
3 780 885 169 
3 767 769 782 
3 149 782 769 
3 790 195 2312 
3 790 2312 792 
3 851 792 2312 
3 2306 2313 795 
3 797 2313 742 
3 797 795 2313 
3 2313 2306 2305 
3 2313 2305 742 
3 808 924 809 
3 796 809 794 
3 885 2314 805 
3 885 2310 2314 
3 2314 2310 2306 
3 795 794 2315 
3 806 2315 794 
3 806 805 2315 
3 2306 795 2315 
3 2314 2315 805 
3 2314 2306 2315 
3 922 2316 924 
3 922 807 2316 
3 2316 806 794 
3 2316 807 806 
3 889 807 921 
3 922 921 807 
3 804 807 889 
3 809 924 794 
3 2316 794 924 
3 890 810 820 
3 890 808 810 
3 811 175 2317 
3 811 2317 810 
3 819 2317 175 
3 819 810 2317 
3 160 819 2318 
3 160 2318 161 
3 175 2318 819 
3 175 161 2318 
3 775 824 2319 
3 775 2319 789 
3 2320 2319 824 
3 2320 789 2319 
3 2320 2321 789 
3 790 2321 195 
3 790 789 2321 
3 196 2322 2320 
3 196 195 2322 
3 2321 2320 2322 
3 2321 2322 195 
3 930 2323 827 
3 930 935 2323 
3 934 2323 935 
3 831 2324 934 
3 2323 2324 827 
3 2323 934 2324 
3 828 827 2324 
3 828 2324 831 
3 834 828 830 
3 834 829 828 
3 832 210 827 
3 930 827 210 
3 781 777 2325 
3 781 2325 824 
3 826 2325 777 
3 2320 824 840 
3 2325 826 840 
3 2325 840 824 
3 837 836 172 
3 837 788 836 
3 2320 840 856 
3 2320 856 196 
3 848 847 2326 
3 848 2326 849 
3 869 2326 847 
3 869 849 2326 
3 2312 195 850 
3 2312 850 851 
3 194 196 2327 
3 194 2327 858 
3 834 2327 196 
3 834 858 2327 
3 867 865 198 
3 876 198 865 
3 842 2328 877 
3 878 2328 881 
3 878 877 2328 
3 868 881 2328 
3 868 2328 842 
3 869 944 868 
3 881 868 944 
3 943 881 944 
3 820 819 907 
3 820 907 895 
3 904 905 973 
3 904 973 902 
3 911 2329 912 
3 913 2329 977 
3 913 912 2329 
3 910 2329 911 
3 910 977 2329 
3 922 924 923 
3 922 923 903 
3 902 901 2330 
3 1020 2330 901 
3 1020 925 2330 
3 903 902 2330 
3 921 903 925 
3 2330 925 903 
3 932 955 953 
3 953 934 933 
3 953 933 932 
3 933 2331 931 
3 2332 931 2331 
3 937 962 2331 
3 927 963 234 
3 963 936 234 
3 963 937 936 
3 1014 958 2333 
3 1014 2333 1016 
3 960 2333 958 
3 960 1016 2333 
3 958 931 2334 
3 958 2334 959 
3 2332 2334 931 
3 2335 959 2336 
3 2335 2336 2337 
3 2335 2338 2339 
3 2335 2339 1105 
3 960 959 2340 
3 960 2340 1105 
3 2335 2340 959 
3 2335 1105 2340 
3 1054 2341 962 
3 1054 2332 2341 
3 2331 962 2341 
3 2331 2341 2332 
3 2342 2343 2332 
3 2334 2332 2343 
3 2334 2343 959 
3 935 2344 933 
3 935 937 2344 
3 2331 933 2344 
3 2331 2344 937 
3 289 1061 2345 
3 289 2345 970 
3 1060 2345 1061 
3 1060 970 2345 
3 2346 2347 2348 
3 2349 2348 2347 
3 2349 2350 2348 
3 2348 2350 2351 
3 2352 2351 2350 
3 985 2352 2350 
3 985 991 2352 
3 988 987 991 
3 2352 991 987 
3 2353 2354 1113 
3 2352 987 2351 
3 2354 2351 987 
3 992 2355 987 
3 992 1113 2355 
3 2354 987 2355 
3 2354 2355 1113 
3 2356 2357 2358 
3 2359 2358 2357 
3 2359 2360 2358 
3 2349 2361 2360 
3 2349 2347 2361 
3 2358 2360 2361 
3 2358 2361 2347 
3 1144 2360 2362 
3 2359 2362 2360 
3 2349 986 2363 
3 2349 2363 2350 
3 985 2363 986 
3 985 2350 2363 
3 2349 2360 1144 
3 2349 1144 986 
3 986 1143 2364 
3 986 2364 984 
3 1100 985 984 
3 1100 991 985 
3 995 988 990 
3 995 989 988 
3 1110 992 993 
3 1110 1113 992 
3 998 993 996 
3 1002 996 997 
3 1002 998 996 
3 995 1000 997 
3 1003 997 1000 
3 1003 1002 997 
3 1003 1001 1002 
3 1008 1005 2365 
3 1008 2365 1074 
3 1018 2365 1005 
3 1018 1074 2365 
3 966 965 2366 
3 966 2366 1005 
3 1018 2366 965 
3 1018 1005 2366 
3 1017 1016 1018 
3 1108 1018 1016 
3 1020 1021 1028 
3 1020 1028 925 
3 1026 1021 1023 
3 1019 1023 1021 
3 910 1032 979 
3 910 267 1032 
3 1039 284 1037 
3 1066 1037 284 
3 276 998 2367 
3 276 2367 978 
3 917 978 2367 
3 1002 2367 998 
3 1002 917 2367 
3 2336 959 2343 
3 2336 2343 2342 
3 2336 2342 2337 
3 2368 2369 2370 
3 1047 1114 2371 
3 1050 1047 2372 
3 2371 2372 1047 
3 2371 2373 2372 
3 2372 2374 1050 
3 2372 2373 2374 
3 1052 1049 1051 
3 1052 1048 1049 
3 2342 1054 1051 
3 2342 2332 1054 
3 1053 961 2375 
3 1053 2375 1026 
3 963 2375 961 
3 1027 2375 963 
3 1027 1026 2375 
3 2376 2377 2378 
3 2379 2380 2381 
3 2377 2382 2381 
3 2377 2381 2380 
3 1064 2378 2380 
3 2377 2380 2378 
3 1055 2380 2383 
3 2379 2383 2380 
3 1055 2384 2380 
3 1064 2384 1065 
3 1059 2384 1055 
3 1059 1065 2384 
3 1056 2383 2385 
3 1056 1055 2383 
3 1058 2386 2387 
3 2388 2386 2385 
3 2388 2387 2386 
3 1056 2385 2386 
3 1056 2386 1058 
3 1036 1059 2389 
3 1062 1034 2389 
3 1031 2389 1034 
3 1031 1036 2389 
3 1059 1036 2390 
3 1059 2390 1065 
3 1038 2390 1036 
3 1038 1065 2390 
3 2391 2392 2393 
3 2394 2395 2382 
3 2391 2396 2397 
3 2395 2397 2396 
3 2388 2398 2399 
3 2393 2398 2400 
3 2388 2385 2401 
3 2388 2399 2402 
3 2388 2402 2387 
3 1058 1061 2403 
3 1058 2403 1057 
3 1062 2403 1061 
3 1062 1057 2403 
3 1057 2404 1059 
3 1057 1062 2404 
3 2389 1059 2404 
3 2389 2404 1062 
3 1058 2387 2405 
3 1058 2405 1060 
3 2406 2405 2387 
3 1061 289 2407 
3 1061 2407 1062 
3 288 2407 289 
3 288 1062 2407 
3 2395 2408 2382 
3 2384 1064 2380 
3 1064 1063 2409 
3 1064 2409 2378 
3 1116 2409 1063 
3 1066 1067 2410 
3 1066 2410 1038 
3 1120 2410 1067 
3 1120 1038 2410 
3 1008 2411 1009 
3 2412 1009 2411 
3 1075 2413 1008 
3 2411 1008 2413 
3 2411 2413 2414 
3 1079 2414 2413 
3 1079 2413 1075 
3 1139 1083 2415 
3 2415 1083 1082 
3 2415 1082 1102 
3 2416 2417 1102 
3 2415 1102 2417 
3 2415 2417 2418 
3 2415 2418 1139 
3 1141 2418 2417 
3 1141 1139 2418 
3 292 1083 286 
3 1084 286 1083 
3 1083 1139 1084 
3 1085 1084 1139 
3 2416 2419 2420 
3 2416 2420 2417 
3 2421 2420 2419 
3 2421 2417 2420 
3 2416 1102 2422 
3 1089 2422 1102 
3 1089 1088 2422 
3 1128 2423 1126 
3 1128 2419 2423 
3 2424 1126 2423 
3 2416 2423 2419 
3 1088 2424 2416 
3 2423 2416 2424 
3 2422 1088 2416 
3 1092 1099 2425 
3 1103 2425 1099 
3 1103 1090 2425 
3 296 2425 1090 
3 296 1092 2425 
3 1094 306 2426 
3 1094 2426 1114 
3 2427 1114 2426 
3 1100 1099 2428 
3 1100 2428 990 
3 1092 2428 1099 
3 994 990 2428 
3 994 2428 1092 
3 2346 2429 2347 
3 2356 2429 2430 
3 2346 2431 2432 
3 2429 2346 2433 
3 2429 2433 2430 
3 2432 2433 2346 
3 2432 2430 2433 
3 1191 2434 1192 
3 2435 1192 2434 
3 2434 2436 2435 
3 2437 2432 2431 
3 2438 2353 2439 
3 2439 2437 2431 
3 2439 2440 2437 
3 1161 2441 1162 
3 1191 1162 2442 
3 2441 2443 2442 
3 2441 2442 1162 
3 2354 2353 2438 
3 2354 2438 2351 
3 2444 2445 2446 
3 2446 2439 2353 
3 2446 2445 2447 
3 2447 2445 2448 
3 2436 2449 2435 
3 2447 2448 2449 
3 2447 2449 2440 
3 2444 2450 2445 
3 2444 2412 2450 
3 2448 2445 2414 
3 2450 2414 2445 
3 1079 1101 2414 
3 2448 2414 1101 
3 1060 305 970 
3 307 970 305 
3 306 305 2426 
3 2406 2426 305 
3 2406 2427 2426 
3 2427 2406 2451 
3 2402 2452 2451 
3 2453 2427 2452 
3 2451 2452 2427 
3 305 2405 2406 
3 305 1060 2405 
3 2387 2402 2451 
3 2387 2451 2406 
3 1103 2454 1090 
3 1088 2454 2424 
3 1088 1090 2454 
3 1104 2454 1103 
3 1126 2454 1104 
3 1126 2424 2454 
3 984 2364 1104 
3 1145 2364 1143 
3 1145 1104 2364 
3 1106 1105 1149 
3 1106 1149 1107 
3 1109 1108 1046 
3 1109 1076 1108 
3 1151 1109 1107 
3 1151 1077 1109 
3 2450 2411 2414 
3 2450 2412 2411 
3 1111 2455 1112 
3 1111 1012 2455 
3 1009 2412 1012 
3 2455 1012 2412 
3 1113 1112 2456 
3 1113 2456 2353 
3 2444 2456 1112 
3 2456 2446 2353 
3 2456 2444 2446 
3 2444 1112 2455 
3 2444 2455 2412 
3 2427 2457 1114 
3 2427 2453 2457 
3 2371 1114 2457 
3 2371 2457 2453 
3 2458 2459 2453 
3 2458 2373 2459 
3 2371 2453 2459 
3 2371 2459 2373 
3 2452 2460 2453 
3 2458 2460 2461 
3 2458 2453 2460 
3 2462 2460 2452 
3 2462 2461 2460 
3 308 310 1117 
3 1117 1116 308 
3 1116 1118 2463 
3 2376 2463 1118 
3 2376 2378 2463 
3 1171 1175 2464 
3 2465 2464 1175 
3 1117 2466 1118 
3 2464 2466 1171 
3 2464 1118 2466 
3 2466 1117 1119 
3 2466 1119 1171 
3 1116 1063 1120 
3 2421 1142 2467 
3 2421 2467 2417 
3 1141 2467 1142 
3 1141 2417 2467 
3 2421 1154 1142 
3 1159 1142 1154 
3 2421 2419 2468 
3 2421 2468 1154 
3 1155 2469 1156 
3 1155 1154 2469 
3 2468 1156 2469 
3 2468 2469 1154 
3 1128 1156 2468 
3 1128 2468 2419 
3 1157 1156 2470 
3 1128 1127 2471 
3 1128 2471 1156 
3 2470 2471 1127 
3 2470 1156 2471 
3 1134 1129 2472 
3 1134 2472 1135 
3 1080 2472 1129 
3 1080 1135 2472 
3 1101 1129 2473 
3 1101 2473 2448 
3 1137 2473 1129 
3 1138 1186 2474 
3 1138 2474 1192 
3 1190 2474 1186 
3 1190 1192 2474 
3 1138 1132 1131 
3 1138 1131 1186 
3 1130 1132 2475 
3 2476 1201 2475 
3 331 2475 1201 
3 331 1130 2475 
3 1131 1133 1187 
3 1131 1187 1186 
3 1136 2476 1132 
3 2475 1132 2476 
3 1136 1135 2477 
3 1136 2477 2476 
3 1138 1192 2478 
3 2435 2478 1192 
3 2435 1137 2478 
3 1134 1138 2478 
3 1134 2478 1137 
3 2435 2479 1137 
3 2473 1137 2479 
3 2473 2479 2448 
3 1140 1139 2480 
3 1140 2480 319 
3 1141 319 2480 
3 2480 1139 1141 
3 2481 2482 2362 
3 1145 1143 2483 
3 2482 2484 2483 
3 1144 2362 1143 
3 2482 1143 2362 
3 1164 1217 2485 
3 1218 2486 1217 
3 2485 1217 2486 
3 2359 2357 2486 
3 2485 2486 2357 
3 2481 2362 2487 
3 2359 2486 2487 
3 2359 2487 2362 
3 1127 1145 2488 
3 2483 2484 2488 
3 2483 2488 1145 
3 2489 2369 2490 
3 2370 2489 2338 
3 2370 2369 2489 
3 2491 2492 2493 
3 2489 2492 2339 
3 2489 2339 2338 
3 1149 2339 2492 
3 1149 1105 2339 
3 1254 2494 2495 
3 1174 2496 2494 
3 2495 2494 2496 
3 2497 2498 2496 
3 2495 2496 2498 
3 2495 2498 2499 
3 2500 2497 2496 
3 2500 2493 2497 
3 1149 2492 2501 
3 1149 2501 1150 
3 2491 2501 2492 
3 2491 1150 2501 
3 1152 1151 1150 
3 1152 1080 1151 
3 1152 1150 2491 
3 1152 2491 2502 
3 1152 2502 1135 
3 2477 1135 2502 
3 2500 2491 2493 
3 2500 2502 2491 
3 2402 2399 2503 
3 2402 2503 2452 
3 2462 2503 2399 
3 2462 2452 2503 
3 1155 1157 2504 
3 1155 2504 1158 
3 1183 1158 2504 
3 2458 2461 2505 
3 2506 2507 2505 
3 2458 2508 2373 
3 2505 2507 2508 
3 2505 2508 2458 
3 2509 2510 2511 
3 2509 2511 2512 
3 2513 2511 2510 
3 1160 2514 1168 
3 1160 2515 2514 
3 2509 1168 2514 
3 2509 2514 2515 
3 1160 1162 2516 
3 1160 2516 2515 
3 1194 2516 1162 
3 1194 2515 2516 
3 1167 2512 2517 
3 1167 2517 1249 
3 1167 1168 2512 
3 2509 2512 1168 
3 1161 1165 2518 
3 2356 2430 2518 
3 2518 2441 1161 
3 2518 2430 2441 
3 2356 2519 2357 
3 1164 2519 1165 
3 2518 2520 2356 
3 2518 1165 2520 
3 2519 2356 2520 
3 2519 2520 1165 
3 2358 2347 2429 
3 2358 2429 2356 
3 2485 2519 1164 
3 2485 2357 2519 
3 1166 1167 2521 
3 1166 2521 1163 
3 1248 2521 1167 
3 1248 1163 2521 
3 1201 2476 2522 
3 1173 1172 2522 
3 1172 1198 2523 
3 1202 2523 1198 
3 1202 1201 2523 
3 2523 2522 1172 
3 2523 1201 2522 
3 1174 1173 2524 
3 1174 2524 2496 
3 2500 2524 1173 
3 2500 2496 2524 
3 1199 1174 2494 
3 1199 1172 1174 
3 2477 1173 2522 
3 2477 2522 2476 
3 2477 2502 1173 
3 2500 1173 2502 
3 2482 2525 2484 
3 2482 2481 2525 
3 2525 2526 2484 
3 2525 1241 2526 
3 2526 1241 2527 
3 2526 2527 2528 
3 2470 1127 2528 
3 2526 2528 2484 
3 1157 2529 1177 
3 2527 2530 2529 
3 2527 2529 2528 
3 1243 2531 1241 
3 2527 1241 2531 
3 2527 2531 2530 
3 2528 1127 2488 
3 2528 2488 2484 
3 2529 2470 2528 
3 2529 1157 2470 
3 1177 2532 1178 
3 1238 2532 2530 
3 1238 1178 2532 
3 2529 2532 1177 
3 2529 2530 2532 
3 2533 2534 2535 
3 2465 1175 2535 
3 1212 2536 1176 
3 322 2536 1175 
3 322 1176 2536 
3 2535 1175 2536 
3 2535 2536 1212 
3 1211 2537 1212 
3 1211 2533 2537 
3 2535 1212 2537 
3 2535 2537 2533 
3 2538 2539 2540 
3 2533 2541 2534 
3 2541 2533 2542 
3 2541 2542 2543 
3 2376 2544 2545 
3 2376 1118 2544 
3 2465 2545 2544 
3 2545 2546 2538 
3 2539 2538 2546 
3 2465 2546 2545 
3 1179 1183 1177 
3 1179 1178 1213 
3 1237 1213 1178 
3 1181 1179 1213 
3 1181 1183 1179 
3 1177 2504 1157 
3 1177 1183 2504 
3 1181 1180 1184 
3 1181 1184 1183 
3 1181 1213 1214 
3 1181 1214 346 
3 2442 2434 1191 
3 2449 2479 2435 
3 2449 2448 2479 
3 2510 2547 2548 
3 1285 2547 1196 
3 1285 2548 2547 
3 2547 2549 1196 
3 2547 2510 2549 
3 1194 2549 2515 
3 1194 1196 2549 
3 2509 2550 2510 
3 2509 2515 2550 
3 2549 2510 2550 
3 2549 2550 2515 
3 1288 2551 1289 
3 1285 1289 2552 
3 1285 2552 2548 
3 2551 2552 1289 
3 2551 2548 2552 
3 1193 1190 1188 
3 1193 1191 1190 
3 332 331 1202 
3 332 1202 1225 
3 2553 2554 2555 
3 2556 2557 2558 
3 2558 2559 1255 
3 2554 2559 2555 
3 2462 2560 2561 
3 2462 2399 2560 
3 2392 2562 2561 
3 2462 2561 2563 
3 2462 2563 2461 
3 2553 2555 2564 
3 2391 2565 2392 
3 2565 2566 2562 
3 2565 2567 2566 
3 2553 2568 2569 
3 2566 2568 2562 
3 2566 2569 2568 
3 2568 2564 2562 
3 2568 2553 2564 
3 2553 2569 2570 
3 2571 2554 2570 
3 2570 2554 2553 
3 2565 2562 2392 
3 2572 2569 2573 
3 2566 2567 2573 
3 2566 2573 2569 
3 1198 1200 2574 
3 1224 2574 1200 
3 1202 1198 2574 
3 1202 2574 1225 
3 1203 2575 1287 
3 1291 2575 1233 
3 1291 1287 2575 
3 1204 2575 1203 
3 1204 1233 2575 
3 1211 1266 2542 
3 1211 2542 2533 
3 1210 1207 2576 
3 1210 2576 1211 
3 2577 1211 2576 
3 1238 2530 2578 
3 1238 2578 1245 
3 1243 1245 2578 
3 2579 2397 2580 
3 2580 2540 2581 
3 2580 2581 2579 
3 2582 2581 2540 
3 2582 2579 2581 
3 2582 2583 2584 
3 2582 2584 2579 
3 2397 2579 2585 
3 2391 2397 2586 
3 2585 2586 2397 
3 2585 2567 2586 
3 1239 2525 2481 
3 1239 1241 2525 
3 1218 2487 2486 
3 1218 2481 2487 
3 1218 1219 2587 
3 1218 2587 2481 
3 1239 2587 1219 
3 1239 2481 2587 
3 1216 1215 2588 
3 1216 2588 1219 
3 1246 1219 2588 
3 2589 2590 2591 
3 2589 2592 2590 
3 2593 1220 2594 
3 2590 2594 1220 
3 2590 2592 2594 
3 2595 2594 2592 
3 1222 2590 1220 
3 1222 2591 2590 
3 1222 1223 2596 
3 1222 2596 2591 
3 1234 2597 1226 
3 1224 1226 2597 
3 2574 1224 2597 
3 2574 2597 1225 
3 1224 1200 2598 
3 1224 2598 1223 
3 1220 2599 1221 
3 1226 1221 2599 
3 2593 2600 1220 
3 2599 2600 1302 
3 2599 1220 2600 
3 1302 2600 1303 
3 2601 2600 2593 
3 2601 1303 2600 
3 2599 1232 1226 
3 2599 1302 1232 
3 1231 1232 1302 
3 1234 1226 1232 
3 2597 338 1225 
3 2597 1234 338 
3 2376 2545 2602 
3 2394 2382 2602 
3 2377 2376 2602 
3 2377 2602 2382 
3 2538 2602 2545 
3 2538 2394 2602 
3 2580 2397 2395 
3 2538 2540 2603 
3 2538 2603 2394 
3 2580 2603 2540 
3 2531 2578 2530 
3 2531 1243 2578 
3 1244 1240 1242 
3 1244 1243 1240 
3 1293 1295 1246 
3 1244 1242 1295 
3 1246 1295 1242 
3 1215 1252 2604 
3 2604 1246 2588 
3 2604 2588 1215 
3 2605 2604 1252 
3 2605 1293 2604 
3 2604 1293 1246 
3 2606 2607 2608 
3 2606 2608 2609 
3 2610 2609 2608 
3 1253 2611 2607 
3 2610 2611 1249 
3 1248 2611 1253 
3 1248 1249 2611 
3 1253 2607 2612 
3 1253 2612 1252 
3 2605 2612 2607 
3 2605 1252 2612 
3 1199 2494 2613 
3 1254 2613 2494 
3 1254 1257 2613 
3 1199 2614 1200 
3 2598 2614 1257 
3 2598 1200 2614 
3 2613 1257 2614 
3 2613 2614 1199 
3 2596 2615 2591 
3 2616 2554 2571 
3 2615 2617 2618 
3 2615 2619 2620 
3 1323 2620 2619 
3 2618 2616 2619 
3 2618 2619 2615 
3 2615 2620 2621 
3 2615 2621 2591 
3 2589 2621 2620 
3 2589 2591 2621 
3 1316 2620 1323 
3 1211 2577 2622 
3 1211 2622 1266 
3 1267 1266 2622 
3 1272 2576 1207 
3 1272 2577 2576 
3 1207 1209 1273 
3 1207 1273 1272 
3 1272 1271 1270 
3 1272 1270 2577 
3 2623 2624 2625 
3 1263 2626 1266 
3 1263 2623 2626 
3 2626 2625 2543 
3 2626 2623 2625 
3 2623 2627 2624 
3 1304 2627 1265 
3 1263 1265 2623 
3 2627 2623 1265 
3 1265 2628 1304 
3 1305 2628 2629 
3 1305 1304 2628 
3 1264 2630 1265 
3 1264 1341 2630 
3 2630 2628 1265 
3 2630 2629 2628 
3 1304 1306 2631 
3 2631 2627 1304 
3 2631 2624 2627 
3 2542 1266 2626 
3 2542 2626 2543 
3 1270 1267 2577 
3 1270 1268 1267 
3 2632 2573 2567 
3 2632 2572 2573 
3 2572 2633 2569 
3 2634 2633 2572 
3 2634 2635 2633 
3 2632 2636 2637 
3 2632 2637 2572 
3 2634 2637 2636 
3 2634 2572 2637 
3 2571 2635 2638 
3 2633 2635 2571 
3 2633 2571 2570 
3 2633 2570 2569 
3 1279 2639 1280 
3 2634 2636 2640 
3 2634 2640 1319 
3 2639 2640 2636 
3 2639 1319 2640 
3 2635 2641 1320 
3 1318 2641 1319 
3 1318 1320 2641 
3 2634 1319 2641 
3 2634 2641 2635 
3 1322 2638 1320 
3 1322 1323 2638 
3 2635 1320 2638 
3 2642 2643 2583 
3 2584 2583 2644 
3 2643 2644 2583 
3 2585 2584 2644 
3 2585 2579 2584 
3 2585 2644 2645 
3 2585 2645 2567 
3 2632 2645 2644 
3 2632 2567 2645 
3 2632 2643 2636 
3 2632 2644 2643 
3 2625 2646 2543 
3 2582 2540 2647 
3 2539 2647 2540 
3 2582 2648 2583 
3 2649 2648 2646 
3 2649 2583 2648 
3 2625 2624 2650 
3 2625 2650 2646 
3 2649 2650 2624 
3 2649 2646 2650 
3 2631 1306 2651 
3 2631 2651 2652 
3 2649 2631 2652 
3 2649 2624 2631 
3 2649 2652 2642 
3 2649 2642 2583 
3 1280 2653 2642 
3 2643 2642 2653 
3 2643 2653 2636 
3 2639 2653 1280 
3 2639 2636 2653 
3 2642 2652 2654 
3 2642 2654 1280 
3 2651 2654 2652 
3 1317 1319 2655 
3 2639 2655 1319 
3 2639 1279 2655 
3 2656 2655 1279 
3 2656 1317 2655 
3 1281 1351 2657 
3 1281 2657 1279 
3 2656 2657 1351 
3 2656 1279 2657 
3 1281 2654 2651 
3 1281 1280 2654 
3 2651 1306 2658 
3 2651 2658 1281 
3 1350 2658 1306 
3 1350 1281 2658 
3 1311 2659 1227 
3 1288 2660 2661 
3 1364 2660 1361 
3 2659 1361 2660 
3 2659 2660 1288 
3 1290 2662 1288 
3 1290 1227 2662 
3 2659 1288 2662 
3 2659 2662 1227 
3 1294 1293 2663 
3 1294 2663 1297 
3 1298 1297 2663 
3 1301 1298 2663 
3 2605 1301 1293 
3 2663 1293 1301 
3 2607 2606 2664 
3 1300 1301 2664 
3 2605 2607 2665 
3 2605 2665 1301 
3 2664 2665 2607 
3 2664 1301 2665 
3 2666 2664 2606 
3 2666 1300 2664 
3 1298 1300 1331 
3 1298 1331 1299 
3 1228 1227 2667 
3 1228 2667 1233 
3 1290 2667 1227 
3 1290 1233 2667 
3 1306 2668 1350 
3 1347 2668 2669 
3 1347 1350 2668 
3 1305 2669 2668 
3 1305 2668 1306 
3 2629 1427 2670 
3 1347 2669 2671 
3 2670 2671 2669 
3 1422 2671 1427 
3 2670 1427 2671 
3 2630 2672 2629 
3 2630 1341 2672 
3 1427 2629 1429 
3 2672 1429 2629 
3 1305 2670 2669 
3 1305 2629 2670 
3 1393 1429 2672 
3 1402 2673 2674 
3 1407 2675 1364 
3 2674 1364 2675 
3 2674 2675 1402 
3 1402 1404 2676 
3 1537 2676 1404 
3 1537 2677 2676 
3 2673 1402 2676 
3 2673 2676 2677 
3 2548 2678 2679 
3 2548 2679 2510 
3 2513 2679 2678 
3 2513 2510 2679 
3 1435 1337 2680 
3 1308 2680 1337 
3 1308 1307 2680 
3 2680 1307 2513 
3 2680 2513 2678 
3 1336 1308 1337 
3 1336 1310 1308 
3 1307 1309 2681 
3 2517 2512 2681 
3 2513 1307 2681 
3 2611 2608 2607 
3 2611 2610 2608 
3 2610 2682 1309 
3 2610 1249 2682 
3 2517 2682 1249 
3 1313 1312 1311 
3 1376 1311 1312 
3 1314 1321 2683 
3 1324 2683 1321 
3 1314 2683 2684 
3 1314 2684 1315 
3 2685 1315 2684 
3 1316 1315 2686 
3 1316 2686 2620 
3 2589 2686 1315 
3 2589 2620 2686 
3 2595 2592 2687 
3 1315 2685 2688 
3 2687 2688 2685 
3 2687 2592 2688 
3 2589 1315 2688 
3 2589 2688 2592 
3 1324 1326 2689 
3 1324 2689 2683 
3 2690 2689 1326 
3 2691 2692 2693 
3 1349 2692 1351 
3 2656 2692 2691 
3 2656 1351 2692 
3 2691 2693 2694 
3 2695 1326 2694 
3 1325 2691 1326 
3 2694 1326 2691 
3 2656 2691 1325 
3 2656 1325 1317 
3 1327 1325 1324 
3 1327 1317 1325 
3 1300 2666 2696 
3 1343 2696 2666 
3 1343 381 2696 
3 1331 1300 2696 
3 1331 2696 381 
3 1335 1433 1332 
3 1333 1332 1433 
3 1336 1335 1332 
3 1332 1334 2697 
3 1354 2697 1334 
3 1354 1355 2697 
3 1338 2697 1355 
3 1338 1332 2697 
3 1433 407 2698 
3 1433 2698 1333 
3 422 2698 407 
3 422 1333 2698 
3 2610 2699 2609 
3 1360 2699 1310 
3 1360 2609 2699 
3 1309 2699 2610 
3 1309 1310 2699 
3 1393 1394 2700 
3 1393 2700 1429 
3 1428 2700 1394 
3 1428 1429 2700 
3 1340 2701 1341 
3 1340 1339 2701 
3 2701 2672 1341 
3 2701 1393 2672 
3 1393 2702 1381 
3 1342 1381 2702 
3 2701 2702 1393 
3 2701 1339 2702 
3 1283 1284 2703 
3 1283 2703 1339 
3 1342 2703 1284 
3 2702 2703 1342 
3 2702 1339 2703 
3 2678 2704 2705 
3 2678 2548 2704 
3 2551 2705 2704 
3 2551 2704 2548 
3 2661 2706 2705 
3 2674 2673 2706 
3 2660 1364 2707 
3 2660 2707 2661 
3 2674 2707 1364 
3 2551 1288 2661 
3 2551 2661 2705 
3 1343 2666 1359 
3 1343 1359 1346 
3 2606 2609 1359 
3 2606 1359 2666 
3 1347 2671 2708 
3 1347 2708 1348 
3 2709 2708 2671 
3 2709 1348 2708 
3 1349 1348 2710 
3 2711 2693 2710 
3 2692 1349 2710 
3 2692 2710 2693 
3 1349 1351 1350 
3 1349 1350 1347 
3 1358 1334 1481 
3 1358 1481 1356 
3 1359 2609 1360 
3 1359 1360 1355 
3 1362 1361 2659 
3 1376 2712 1311 
3 1376 1362 2712 
3 2659 1311 2712 
3 2659 2712 1362 
3 2713 2714 2715 
3 1369 1368 2716 
3 2714 1369 2716 
3 2714 2716 2715 
3 1416 1369 2714 
3 1416 1366 1369 
3 2713 2687 2714 
3 2713 2595 2687 
3 2601 2593 2595 
3 2594 2595 2593 
3 1416 2717 2685 
3 1416 2714 2717 
3 2687 2685 2717 
3 2687 2717 2714 
3 1373 2715 2718 
3 1373 2718 1411 
3 2719 1411 2718 
3 1373 1374 2715 
3 2713 2715 1374 
3 2713 1374 2720 
3 2713 2720 2595 
3 2601 2720 1374 
3 2601 2595 2720 
3 2601 1374 1371 
3 2601 1371 1303 
3 1385 1384 1480 
3 1385 1480 1388 
3 2711 2721 2722 
3 2723 2722 2724 
3 2721 2724 2722 
3 1503 2725 2724 
3 1503 1505 2725 
3 2723 2724 2725 
3 2723 2725 1505 
3 2709 2721 1348 
3 2709 2724 2721 
3 2709 2671 2726 
3 2709 2726 1424 
3 1422 2726 2671 
3 1422 1424 2726 
3 2709 1424 2727 
3 2709 2727 2724 
3 1503 2727 1424 
3 1503 2724 2727 
3 2728 1536 2729 
3 1537 2729 1536 
3 1537 1404 2729 
3 1406 2728 2729 
3 1406 2729 1404 
3 1403 2675 1407 
3 1403 1402 2675 
3 1494 2730 1492 
3 2719 2730 1411 
3 1412 1411 2730 
3 1412 2730 1494 
3 1412 1494 2731 
3 1412 2731 1415 
3 1455 2731 1494 
3 1455 1415 2731 
3 2689 2690 2732 
3 2689 2732 1417 
3 2689 1417 2733 
3 2689 2733 2683 
3 2684 2733 1417 
3 2684 2683 2733 
3 1416 2734 1417 
3 1416 2685 2734 
3 2684 1417 2734 
3 2684 2734 2685 
3 2695 2735 1420 
3 2711 2735 2693 
3 2735 2694 2693 
3 2735 2695 2694 
3 1550 1418 1420 
3 1420 1419 2695 
3 2736 2690 1419 
3 1326 2695 2690 
3 1419 2690 2695 
3 2732 1367 1417 
3 2732 2736 1367 
3 2732 2690 2736 
3 2711 2722 2737 
3 1421 1420 2737 
3 2737 2735 2711 
3 2737 1420 2735 
3 2710 1348 2711 
3 2721 2711 1348 
3 1421 2738 427 
3 2737 2738 1421 
3 2737 2722 2738 
3 2723 1505 1519 
3 2723 1519 2739 
3 2723 2739 2740 
3 2723 2740 2722 
3 2738 2740 2739 
3 2738 2722 2740 
3 1520 427 2739 
3 2738 2739 427 
3 1428 1394 1430 
3 1428 1430 1423 
3 1433 1432 2741 
3 1433 2741 407 
3 1537 407 2741 
3 1432 2742 2677 
3 1432 1434 2742 
3 2673 2677 2742 
3 2673 2742 1434 
3 1435 2743 1434 
3 2673 1434 2743 
3 2705 1435 2678 
3 2680 2678 1435 
3 2706 1435 2705 
3 2706 2673 2743 
3 2706 2743 1435 
3 1367 2736 1365 
3 1437 1365 2736 
3 1368 2744 2745 
3 2746 2744 1365 
3 2746 2745 2744 
3 2744 1366 1365 
3 2744 1368 1366 
3 1498 2747 1565 
3 1498 2745 2747 
3 2746 2747 2745 
3 2736 1419 1439 
3 2736 1439 1437 
3 1439 1418 1549 
3 1439 1549 1438 
3 1459 1458 2748 
3 1459 2748 2749 
3 1662 2748 1458 
3 1662 2749 2748 
3 1462 1460 2750 
3 2750 1459 2749 
3 2750 1460 1459 
3 1457 1460 1497 
3 1462 2751 1460 
3 1497 1460 2751 
3 1497 2751 1495 
3 2752 2749 1666 
3 1667 1666 2749 
3 2750 2749 2752 
3 1495 2753 1456 
3 1464 2753 1462 
3 1464 1456 2753 
3 2753 2751 1462 
3 2753 1495 2751 
3 1464 1463 1486 
3 1464 1486 1461 
3 1472 1468 1467 
3 1472 1471 1468 
3 1559 1469 2754 
3 1559 2754 1489 
3 1470 2754 1469 
3 1470 1489 2754 
3 1476 1473 1386 
3 1465 1386 1473 
3 1476 1478 2755 
3 1476 2755 1477 
3 1443 2755 1478 
3 2677 1537 2741 
3 2677 2741 1432 
3 1462 2756 1463 
3 1483 1463 2756 
3 2756 1462 2750 
3 2756 2750 2752 
3 1483 2752 1656 
3 1666 1656 2752 
3 2756 2752 1483 
3 1483 1656 2757 
3 1483 2757 1484 
3 1542 2757 1656 
3 1542 1484 2757 
3 454 1488 2758 
3 1467 2758 1488 
3 1467 1469 2758 
3 2755 1490 1477 
3 2755 1443 1490 
3 1540 2759 1501 
3 1406 2759 2728 
3 1406 1501 2759 
3 2759 1539 2728 
3 2759 1540 1539 
3 2728 1539 1538 
3 2728 1538 1536 
3 2760 2761 1500 
3 1368 2745 2762 
3 2761 2719 2762 
3 1498 1500 2745 
3 2716 2718 2715 
3 2716 1368 2762 
3 2730 2719 1492 
3 2760 1492 2719 
3 1493 1492 2763 
3 1493 2763 1495 
3 1496 1495 2763 
3 1496 2764 2765 
3 2760 2764 1492 
3 2760 2765 2764 
3 2764 2763 1492 
3 2764 1496 2763 
3 1457 2766 2767 
3 1457 1497 2766 
3 2766 2768 2769 
3 2766 1497 2768 
3 1496 2765 2768 
3 1496 2768 1497 
3 1499 2770 1500 
3 1499 1563 2770 
3 2760 1500 2770 
3 2760 2770 2765 
3 2768 2771 2769 
3 2768 2765 2771 
3 2770 2771 2765 
3 2770 1563 2771 
3 1565 1564 2772 
3 1565 2772 1498 
3 1499 1498 2772 
3 421 1534 2773 
3 421 2773 1356 
3 1491 2773 1534 
3 1491 1356 2773 
3 1509 1504 1506 
3 1509 1507 1504 
3 1514 1516 1590 
3 1514 1590 1513 
3 1520 1519 1518 
3 1520 2739 1519 
3 1545 2774 1544 
3 1438 2774 437 
3 1438 1544 2774 
3 435 437 2774 
3 435 2774 1545 
3 1438 437 2775 
3 1438 2775 1436 
3 1565 2775 437 
3 1565 1436 2775 
3 1549 1418 1550 
3 1549 1550 426 
3 2776 1562 1567 
3 2776 1563 1562 
3 1562 1564 1568 
3 1562 1568 1567 
3 1570 1633 2777 
3 1570 2777 1571 
3 1629 2777 1633 
3 1629 1571 2777 
3 1570 1576 2778 
3 1570 2778 1633 
3 1580 2778 1576 
3 1578 1570 1569 
3 1578 1576 1570 
3 1580 1581 2778 
3 1591 2778 1581 
3 1591 1633 2778 
3 1591 1581 2779 
3 1591 2779 1513 
3 1585 2779 1581 
3 1585 1513 2779 
3 1444 1448 1599 
3 1546 1547 2780 
3 1546 2780 2295 
3 1602 2780 1547 
3 1602 2295 2780 
3 1674 2781 2782 
3 2293 2782 2781 
3 1566 2781 1674 
3 1546 2783 1566 
3 1546 2295 2783 
3 2781 1566 2783 
3 2781 2783 2295 
3 1666 1660 2784 
3 1666 2784 1656 
3 476 2784 1660 
3 476 1656 2784 
3 1528 1611 1669 
3 1528 1669 1612 
3 1614 1613 2785 
3 1614 2785 2786 
3 1714 2785 1613 
3 1616 2786 2787 
3 2788 2787 2786 
3 1614 2786 1616 
3 1615 1619 1609 
3 1617 1609 1619 
3 2290 2789 2790 
3 1621 1716 2791 
3 2789 2294 2791 
3 2293 1623 1622 
3 2293 1622 2294 
3 1622 1621 2791 
3 2791 2294 1622 
3 1634 1629 1633 
3 1634 1632 1629 
3 1629 1632 2792 
3 1629 2792 1628 
3 1631 2792 1632 
3 1675 1634 1589 
3 1675 1632 1634 
3 1638 1637 1715 
3 1638 1715 1621 
3 1646 1619 1687 
3 1646 1687 1645 
3 1655 1645 2793 
3 1655 2793 1705 
3 1616 2787 2793 
3 1616 2793 1645 
3 1757 1705 2794 
3 2793 2787 2794 
3 2793 2794 1705 
3 1457 2767 2795 
3 1457 2795 1458 
3 1661 2795 2796 
3 1661 1458 2795 
3 1661 2796 1664 
3 1667 1662 1663 
3 1667 2749 1662 
3 1665 1664 1696 
3 1665 1696 1697 
3 1665 1697 1663 
3 501 1663 1697 
3 1668 2797 501 
3 1668 1667 2797 
3 1663 501 2797 
3 1663 2797 1667 
3 2795 2798 2796 
3 2795 2767 2798 
3 2798 2799 1688 
3 2798 2767 2799 
3 2799 2800 2801 
3 2799 2767 2800 
3 2766 2769 2800 
3 2766 2800 2767 
3 1566 1674 1567 
3 1673 1567 1674 
3 2776 2802 2801 
3 1563 2776 2803 
3 2801 2769 2803 
3 2801 2803 2776 
3 2771 2803 2769 
3 2771 1563 2803 
3 2800 2769 2801 
3 2804 2805 2291 
3 2804 2806 2805 
3 1689 2807 2806 
3 2805 2806 2807 
3 2805 2807 1672 
3 2292 2291 2808 
3 2805 1672 2808 
3 2805 2808 2291 
3 2807 2802 1673 
3 2807 1673 1672 
3 2776 1673 2802 
3 2776 1567 1673 
3 1674 2782 1672 
3 2808 1672 2782 
3 2297 2792 1631 
3 1725 2809 2810 
3 2297 2811 2809 
3 1628 2812 1571 
3 1724 2812 1725 
3 1724 1571 2812 
3 2812 2809 1725 
3 2812 1628 2809 
3 1678 1677 2813 
3 1678 2813 2810 
3 2814 2813 1677 
3 2810 2815 1678 
3 2815 481 1682 
3 2815 2811 481 
3 2809 2811 2810 
3 2815 2810 2811 
3 1681 2815 1682 
3 1681 1678 2815 
3 481 2816 482 
3 481 2811 2816 
3 2297 482 2816 
3 2297 2816 2811 
3 2817 2818 2819 
3 2820 2821 2822 
3 2823 2824 2825 
3 2824 2826 2827 
3 2821 2828 2829 
3 2821 2829 2827 
3 2824 2827 2830 
3 2824 2830 2825 
3 2831 2832 2833 
3 2831 1695 2832 
3 2832 2834 2833 
3 2832 2835 2834 
3 2830 2833 2825 
3 2834 2825 2833 
3 2823 2825 2834 
3 1664 2832 1695 
3 1664 2835 2832 
3 1690 2823 2836 
3 2834 2835 2836 
3 2834 2836 2823 
3 1689 2806 2837 
3 2837 2824 2823 
3 2837 2826 2824 
3 1690 2838 1688 
3 1664 2796 2835 
3 2838 2835 2796 
3 2798 1688 2838 
3 2798 2838 2796 
3 2801 2802 2839 
3 2807 2839 2802 
3 2807 1689 2839 
3 1688 2839 1689 
3 2839 1688 2799 
3 2839 2799 2801 
3 2838 2836 2835 
3 2838 1690 2836 
3 2837 1690 1689 
3 2837 2823 1690 
3 2804 2826 2837 
3 2804 2837 2806 
3 1744 2840 2841 
3 2842 1748 2841 
3 2841 1748 1745 
3 2841 1745 1744 
3 1744 2843 2840 
3 2831 2843 2844 
3 2845 2840 2846 
3 2831 2833 2846 
3 1694 2847 2848 
3 1694 1693 2847 
3 2300 2848 2847 
3 2300 2849 2848 
3 2299 2850 2300 
3 2849 2300 2850 
3 2849 2850 2844 
3 2831 2844 1695 
3 2850 1695 2844 
3 1696 1695 2850 
3 1696 2850 2299 
3 1696 2298 1697 
3 1696 2299 2298 
3 1712 1707 1708 
3 1712 506 1707 
3 1710 1759 2851 
3 2788 2851 1759 
3 2788 2786 2851 
3 1710 2785 1714 
3 2785 2851 2786 
3 2785 1710 2851 
3 1761 2852 1759 
3 1761 1767 2852 
3 2788 1759 2852 
3 2788 2852 1767 
3 1710 1714 2853 
3 1710 2853 1711 
3 1712 2853 1714 
3 1712 1711 2853 
3 1712 1714 1713 
3 1712 1713 506 
3 2845 2854 2840 
3 2842 2854 2828 
3 2829 2828 2854 
3 2829 2854 2845 
3 2830 2829 2845 
3 2830 2827 2829 
3 2830 2845 2846 
3 2830 2846 2833 
3 2841 2855 2842 
3 2841 2840 2855 
3 2854 2842 2855 
3 2854 2855 2840 
3 2842 2828 2856 
3 2842 2856 2857 
3 2842 2857 2858 
3 2842 2858 1748 
3 1848 1748 2858 
3 2859 2860 2861 
3 2859 2861 2862 
3 2863 2861 2860 
3 2863 2862 2861 
3 2862 1723 2864 
3 1719 2864 1723 
3 2859 2862 2864 
3 2859 2864 2865 
3 1719 565 2866 
3 2867 2866 565 
3 2867 2865 2866 
3 2864 1719 2866 
3 2864 2866 2865 
3 1743 2868 1677 
3 1743 1721 2868 
3 2814 1677 2868 
3 2814 2868 1722 
3 1722 1723 2869 
3 2862 2869 1723 
3 2870 2871 1729 
3 2869 2871 1722 
3 2869 1729 2871 
3 2814 1722 2871 
3 2814 2871 2870 
3 1720 2872 1721 
3 1720 1722 2872 
3 2868 1721 2872 
3 2868 2872 1722 
3 1742 2873 1716 
3 2874 2873 2875 
3 2863 2876 1730 
3 2876 2873 1742 
3 2876 2875 2873 
3 1742 1636 2877 
3 1728 2877 1636 
3 1728 1730 2877 
3 2876 1742 2877 
3 2876 2877 1730 
3 2863 1730 2878 
3 2863 2878 2862 
3 2860 2879 2880 
3 2881 2880 2879 
3 2863 2860 2880 
3 2878 2869 2862 
3 2878 1729 2869 
3 2878 1730 1729 
3 1727 1724 1726 
3 1727 1569 1724 
3 1636 1577 1727 
3 1636 1727 1728 
3 1727 1726 1728 
3 1729 1728 1726 
3 1725 2810 2882 
3 2814 2870 2882 
3 1729 1726 2870 
3 1725 2870 1726 
3 2870 1725 2882 
3 1741 2883 1739 
3 1737 2883 1735 
3 1737 1739 2883 
3 1758 542 1736 
3 1741 1758 2884 
3 1736 2884 1758 
3 1736 1735 2884 
3 2884 2883 1741 
3 2884 1735 2883 
3 1733 1734 1735 
3 1737 1735 1734 
3 2788 1767 2787 
3 2794 2787 1767 
3 1766 1757 1767 
3 2794 1767 1757 
3 1745 1747 1750 
3 1745 1750 1746 
3 1744 1746 2885 
3 2849 2885 1746 
3 2849 2844 2885 
3 2843 2885 2844 
3 2843 1744 2885 
3 1751 2848 2886 
3 1751 2886 1746 
3 2849 2886 2848 
3 2849 1746 2886 
3 2848 1751 2887 
3 2848 2887 1694 
3 1795 2887 1751 
3 1795 1694 2887 
3 1750 1749 1799 
3 1750 1799 1751 
3 2888 1716 2873 
3 2888 2873 2874 
3 2889 2890 2891 
3 2879 2891 2890 
3 2817 2890 2889 
3 2817 2889 2892 
3 2817 2892 2818 
3 2889 2891 2893 
3 2892 2889 2893 
3 2892 2893 1880 
3 2894 2865 2895 
3 2896 2895 2865 
3 2859 2865 2894 
3 2879 2897 2894 
3 2879 2860 2897 
3 2859 2894 2897 
3 2859 2897 2860 
3 2894 2895 2898 
3 2899 2898 2895 
3 2879 2894 2891 
3 2898 2891 2894 
3 2890 2900 2881 
3 2890 2881 2879 
3 1756 1755 1757 
3 1701 1755 2901 
3 1754 2901 1755 
3 1754 1741 2901 
3 1700 2901 1741 
3 1700 1701 2901 
3 530 2902 1772 
3 1792 1772 2902 
3 1762 1765 2902 
3 1762 2902 530 
3 1762 1760 1764 
3 1762 1764 1765 
3 1770 1772 1884 
3 1770 1884 1771 
3 1803 1774 1773 
3 1803 543 1774 
3 1680 1752 2903 
3 518 2903 1752 
3 518 517 2903 
3 2302 2903 517 
3 2302 1680 2903 
3 1827 2904 1809 
3 1827 1784 2904 
3 1786 548 1784 
3 2904 1784 548 
3 2302 548 1786 
3 1789 1791 1765 
3 1792 1765 1791 
3 1763 1789 1765 
3 1791 1794 2905 
3 1791 2905 1793 
3 1887 2905 1794 
3 1887 1793 2905 
3 1797 1795 1796 
3 1797 1708 1795 
3 1799 1798 1796 
3 2867 2896 2865 
3 2893 2891 2898 
3 1878 2906 2899 
3 1878 1880 2906 
3 2893 2906 1880 
3 1802 1801 1804 
3 1802 1804 1803 
3 547 2904 548 
3 547 1809 2904 
3 1810 1806 1808 
3 1810 1807 1806 
3 1827 1818 1784 
3 1827 1826 1818 
3 1818 1826 1820 
3 1818 1820 1814 
3 1838 1824 2907 
3 2908 2907 1824 
3 1927 2909 1925 
3 1927 2907 2909 
3 2908 1925 2909 
3 2908 2909 2907 
3 1823 2910 1824 
3 2908 2910 1828 
3 2908 1824 2910 
3 556 2910 1823 
3 556 1828 2910 
3 1842 1831 1840 
3 1842 1832 1831 
3 1831 1834 2911 
3 1831 2911 1840 
3 1833 2911 1834 
3 1833 1840 2911 
3 1833 1749 1839 
3 1833 1839 1840 
3 2896 2912 2895 
3 2899 2895 2912 
3 2912 2896 2913 
3 2912 2913 2914 
3 1871 1881 1869 
3 1869 2914 2915 
3 2916 2917 2918 
3 2915 2914 2918 
3 2913 2916 2918 
3 2913 2918 2914 
3 1835 2919 565 
3 1835 2920 2919 
3 2867 565 2919 
3 2867 2919 2920 
3 2920 2916 2921 
3 2913 2921 2916 
3 2913 2896 2921 
3 2867 2920 2921 
3 2867 2921 2896 
3 2922 2923 2924 
3 2916 2925 2917 
3 2924 2925 2926 
3 2924 2917 2925 
3 2927 2928 1837 
3 2927 2926 2928 
3 2916 2920 2929 
3 2928 2929 2920 
3 2928 2926 2929 
3 2929 2926 2925 
3 2929 2925 2916 
3 2927 1837 2930 
3 2927 2930 2907 
3 1838 2930 1837 
3 1838 2907 2930 
3 2927 2907 2931 
3 2927 2931 2932 
3 1927 2931 2907 
3 2924 2933 2922 
3 2924 2926 2933 
3 2927 2932 2933 
3 2927 2933 2926 
3 1835 1837 2928 
3 1835 2928 2920 
3 2934 2935 2936 
3 2935 2818 2892 
3 2935 2892 1880 
3 1879 2935 1880 
3 1879 2936 2935 
3 2937 2938 2936 
3 2934 2936 2938 
3 1846 2939 2938 
3 2934 2938 2939 
3 2856 2828 2940 
3 1839 1747 1843 
3 1839 1843 1841 
3 1842 1841 2941 
3 1842 2941 1923 
3 1921 1977 2942 
3 1832 2942 1977 
3 1842 1923 2942 
3 1842 2942 1832 
3 1845 2943 1846 
3 1845 2857 2943 
3 2856 2940 2943 
3 2856 2943 2857 
3 2943 2940 2939 
3 2943 2939 1846 
3 2944 1846 2938 
3 2944 1844 1846 
3 1845 1844 1902 
3 1845 1902 1850 
3 1847 2945 2941 
3 1847 2941 1841 
3 1849 1847 1848 
3 1849 2945 1847 
3 1849 1850 2945 
3 1895 2945 1850 
3 1845 1848 2858 
3 1845 2858 2857 
3 1858 1854 1941 
3 1858 1941 1857 
3 2912 2914 2946 
3 2912 2946 2899 
3 1869 1881 2914 
3 2946 2914 1881 
3 1878 2946 1881 
3 1878 2899 2946 
3 1862 2039 2947 
3 2036 2947 2039 
3 2948 2949 2036 
3 2947 2949 1861 
3 2947 2036 2949 
3 2950 1861 2949 
3 2950 2949 2948 
3 2951 2952 2948 
3 2950 2948 2952 
3 2950 2952 2953 
3 2950 2953 2954 
3 2955 2953 2952 
3 2955 2954 2953 
3 2956 2957 2958 
3 2140 2139 2958 
3 2952 2956 2958 
3 2955 2952 2958 
3 2955 2958 2139 
3 1859 1861 2959 
3 2955 2960 2954 
3 2959 2954 1983 
3 2960 1983 2954 
3 2950 2959 1861 
3 2950 2954 2959 
3 1986 2961 1983 
3 1986 1859 2961 
3 2959 1983 2961 
3 2959 2961 1859 
3 1862 1865 2962 
3 1862 2962 2039 
3 1953 2962 1865 
3 1953 2039 2962 
3 1860 2947 1861 
3 1860 1862 2947 
3 1986 2963 1859 
3 1860 1859 2964 
3 1860 2964 1863 
3 2963 2964 1859 
3 2963 1863 2964 
3 1953 1951 2965 
3 1953 2965 2039 
3 2037 2965 1951 
3 2037 2039 2965 
3 1863 1904 2966 
3 1899 1864 2966 
3 2966 1864 1863 
3 1866 1864 1899 
3 1866 1899 1868 
3 1953 1865 2967 
3 1867 2967 1865 
3 1867 1874 2967 
3 1954 2967 1874 
3 1954 1953 2967 
3 1948 2968 2969 
3 2915 2968 1869 
3 1870 1869 2968 
3 1873 1870 2970 
3 2968 1948 2970 
3 2968 2970 1870 
3 1872 1871 1870 
3 1872 1875 1871 
3 1882 1871 1875 
3 1882 1881 1871 
3 1872 1870 1873 
3 1872 1873 1867 
3 1876 1872 1868 
3 1876 1875 1872 
3 1874 1873 2970 
3 1874 2970 1948 
3 2937 2936 1877 
3 1879 1877 2936 
3 2944 2938 2937 
3 1876 2937 1877 
3 1901 1876 1868 
3 1901 2937 1876 
3 1879 1878 1882 
3 1879 1882 1877 
3 1889 1965 2971 
3 1889 2971 1891 
3 1964 2971 1965 
3 1964 1891 2971 
3 1928 1926 2972 
3 2972 1926 2973 
3 1998 2974 2975 
3 2975 2972 2976 
3 2973 1926 1856 
3 2973 628 2976 
3 1893 1856 1925 
3 1925 1856 1926 
3 1893 1925 2977 
3 1893 2977 1828 
3 2908 2977 1925 
3 2908 1828 2977 
3 1918 2978 1919 
3 1918 1897 2978 
3 1904 2979 2980 
3 2978 2980 2979 
3 2978 1897 2980 
3 1898 1904 2980 
3 1898 2980 1897 
3 1895 1923 2945 
3 2941 2945 1923 
3 2944 1901 1900 
3 2944 2937 1901 
3 2944 1900 1844 
3 1902 1844 1900 
3 2923 2969 2981 
3 2915 2917 2981 
3 2924 2981 2917 
3 2924 2923 2981 
3 1910 612 1911 
3 1910 1911 1802 
3 1935 1910 1885 
3 1935 612 1910 
3 614 1911 612 
3 614 1909 1911 
3 1917 1912 2982 
3 1917 2982 1794 
3 1975 2982 1912 
3 1975 1794 2982 
3 2978 2983 1919 
3 2978 2979 2983 
3 1985 2983 1986 
3 1985 1919 2983 
3 2983 2979 2963 
3 2983 2963 1986 
3 1924 1897 1918 
3 1924 1895 1897 
3 1920 1922 1979 
3 1920 1979 1921 
3 1924 1921 2942 
3 1924 2942 1923 
3 2931 1927 1928 
3 2931 1928 2932 
3 1928 2984 2932 
3 2985 2984 2972 
3 2985 2932 2984 
3 2985 2972 2986 
3 1994 2987 1995 
3 1994 2988 2987 
3 2987 2986 1995 
3 2985 2922 2989 
3 2985 2989 2932 
3 2933 2989 2922 
3 2933 2932 2989 
3 1936 1937 2990 
3 1936 2990 1938 
3 1958 2990 1937 
3 1958 1938 2990 
3 2923 2922 2991 
3 2987 2991 2922 
3 2987 2988 2991 
3 2992 2991 2988 
3 2923 2991 2969 
3 1988 1993 2993 
3 1952 2992 2993 
3 2988 2994 2992 
3 2993 2994 1988 
3 2993 2992 2994 
3 1994 2994 2988 
3 1994 1988 2994 
3 1950 2993 1993 
3 1950 1952 2993 
3 1952 2995 2992 
3 2969 2995 1948 
3 2991 2992 2969 
3 2995 2969 2992 
3 1949 2995 1952 
3 1949 1948 2995 
3 1961 1964 1966 
3 1961 1966 1963 
3 1970 1966 1965 
3 1970 1967 1966 
3 1970 1969 1967 
3 2088 1967 1969 
3 1973 1980 2996 
3 1973 2996 1969 
3 2997 2996 1980 
3 2997 1969 2996 
3 2998 2130 2999 
3 2092 2999 2130 
3 2999 1984 2998 
3 2999 3000 1984 
3 1982 3000 1987 
3 1984 3000 1982 
3 1985 1987 1922 
3 2062 1922 1987 
3 1991 2042 3001 
3 2046 3001 2042 
3 1991 3001 2103 
3 1991 2103 1992 
3 1990 1989 2041 
3 1990 2041 1991 
3 1990 1992 2040 
3 1990 2040 1993 
3 1998 1997 3002 
3 1998 3002 2974 
3 2047 3002 1997 
3 1998 3003 1999 
3 628 3003 2976 
3 628 1999 3003 
3 3003 2975 2976 
3 3003 1998 2975 
3 2003 2061 3004 
3 2003 3004 1960 
3 1958 1960 3004 
3 1958 3004 1957 
3 2005 3005 3006 
3 2010 2007 3006 
3 2006 2005 3006 
3 2006 3006 2007 
3 2018 2014 3007 
3 2048 3007 2009 
3 2014 2009 3007 
3 2010 3008 2011 
3 2119 3008 3005 
3 2119 2011 3008 
3 3006 3008 2010 
3 3006 3005 3008 
3 2013 2010 2009 
3 2013 2007 2010 
3 2975 3009 2972 
3 2975 2974 3009 
3 2986 2972 3009 
3 2986 3009 2974 
3 2043 3010 2974 
3 2043 1995 3010 
3 2986 2974 3010 
3 2986 3010 1995 
3 2044 2018 3007 
3 2044 1997 2018 
3 2020 2120 3011 
3 3005 2023 3011 
3 2021 2020 3012 
3 3011 2023 3012 
3 3011 3012 2020 
3 2023 2024 2021 
3 2021 3012 2023 
3 3005 2005 3013 
3 3005 3013 2023 
3 2022 3013 2005 
3 2022 2023 3013 
3 2027 2024 3014 
3 2027 3014 2025 
3 2022 3014 2024 
3 2022 2025 3014 
3 3004 2031 1957 
3 3004 2061 2031 
3 2102 641 3015 
3 2034 3015 641 
3 2034 2032 3015 
3 1992 2102 3015 
3 1992 3015 2032 
3 2951 2036 2035 
3 2951 2948 2036 
3 2108 2038 638 
3 2108 2035 2038 
3 2101 3001 2046 
3 2043 3002 2047 
3 2043 2974 3002 
3 2044 3016 2045 
3 2044 3007 3016 
3 2121 3017 2048 
3 3016 2048 3017 
3 3016 3017 2045 
3 2122 2048 2011 
3 2051 2050 2054 
3 2058 2054 2050 
3 2059 2055 2053 
3 2059 2056 2055 
3 2059 2053 3018 
3 2059 3018 2061 
3 2060 3018 2053 
3 2060 2061 3018 
3 1987 3019 2062 
3 1980 2062 3019 
3 3000 3019 1987 
3 3000 3020 3019 
3 2997 3021 3020 
3 2997 1980 3021 
3 3019 3020 3021 
3 3019 3021 1980 
3 1904 1863 3022 
3 1904 3022 2979 
3 2963 3022 1863 
3 2963 2979 3022 
3 3023 3017 2121 
3 3023 2045 3017 
3 2065 2121 2122 
3 2065 2122 2123 
3 2065 2064 3023 
3 2065 3023 2121 
3 2152 2065 2123 
3 2152 2063 2065 
3 643 2100 644 
3 2069 644 2100 
3 3023 2064 2069 
3 3023 2069 2100 
3 3023 2100 3024 
3 3023 3024 2045 
3 2101 3024 2100 
3 2070 2069 2064 
3 2070 2067 2069 
3 2070 2063 2148 
3 2070 2148 2068 
3 2072 2115 3025 
3 2134 3025 2115 
3 2134 2188 3025 
3 2190 3025 2188 
3 2190 2072 3025 
3 2001 2078 3026 
3 2001 3026 2002 
3 2081 3026 2078 
3 2081 2002 3026 
3 2078 2077 2117 
3 2078 2117 2073 
3 2088 2084 1967 
3 2088 2085 2084 
3 2997 2088 1969 
3 2997 2089 2088 
3 2085 2089 2090 
3 2093 2090 2089 
3 2093 3027 2092 
3 3000 3027 3020 
3 2089 3028 2093 
3 3027 3028 3020 
3 3027 2093 3028 
3 2997 3028 2089 
3 2997 3020 3028 
3 3027 3000 2999 
3 3027 2999 2092 
3 2104 2106 3029 
3 3030 3029 2106 
3 3030 3031 3029 
3 2137 3032 2165 
3 3029 3031 3033 
3 3029 3033 2957 
3 3032 3033 3031 
3 3032 2957 3033 
3 3034 3035 3031 
3 3034 2165 3035 
3 3032 3031 3035 
3 3032 3035 2165 
3 3036 3037 2244 
3 3038 3037 3039 
3 3038 2244 3037 
3 3040 3039 3041 
3 3037 3041 3039 
3 3040 2099 3042 
3 3040 3042 3039 
3 3043 3042 2099 
3 3043 3039 3042 
3 3040 3041 3044 
3 3040 3044 3045 
3 3030 3044 3041 
3 3030 3045 3044 
3 2094 3040 3045 
3 2096 3046 2099 
3 2096 2098 3046 
3 3043 2099 3046 
3 3043 3046 2098 
3 2094 3045 3047 
3 2094 3047 640 
3 2107 3047 3045 
3 2107 640 3047 
3 3040 2094 2099 
3 2094 2066 2099 
3 2094 2095 2066 
3 2103 2101 643 
3 2103 3001 2101 
3 2951 2110 3048 
3 2951 3048 2952 
3 2956 3048 2110 
3 2956 2952 3048 
3 2951 2035 3049 
3 2951 3049 2110 
3 2108 3049 2035 
3 2108 2110 3049 
3 2956 2110 3050 
3 2956 3050 2957 
3 2104 3050 2110 
3 3029 3050 2104 
3 3029 2957 3050 
3 2107 3045 3051 
3 2107 3051 2106 
3 3030 3051 3045 
3 3030 2106 3051 
3 2033 2107 2105 
3 648 3052 2024 
3 648 647 3052 
3 2021 2024 3052 
3 2021 3052 647 
3 3030 3041 3053 
3 3030 3053 3031 
3 3034 3053 3041 
3 3034 3031 3053 
3 3034 3054 3036 
3 3034 3041 3054 
3 3037 3036 3054 
3 3037 3054 3041 
3 3034 3036 3055 
3 3034 3055 2165 
3 2164 3055 3036 
3 2164 2165 3055 
3 2119 3005 3056 
3 2119 3056 2120 
3 3011 3056 3005 
3 3011 2120 3056 
3 2119 2118 2124 
3 2119 2124 2011 
3 2161 2129 2126 
3 2161 2128 2129 
3 2139 2138 3057 
3 2131 3057 2138 
