NORM_ASCII 
  4453  8602 
3 2295 2296 2297 
3 514 520 2298 
3 2296 2298 520 
3 2231 524 523 
3 2231 517 2299 
3 514 2299 517 
3 524 2299 2300 
3 524 2231 2299 
3 2299 2298 2300 
3 2299 514 2298 
3 518 2211 526 
3 518 526 515 
3 2301 519 521 
3 2301 520 519 
3 522 524 2302 
3 2294 2303 2302 
3 2273 2304 2305 
3 2273 2305 525 
3 527 2305 2304 
3 527 525 2305 
3 2306 527 2304 
3 2306 521 527 
3 522 2307 523 
3 2227 523 2307 
3 2307 522 2308 
3 2227 2309 2228 
3 2310 2309 2308 
3 2310 2308 2311 
3 529 528 1 
3 530 1 528 
3 2312 2313 2314 
3 2315 2313 2316 
3 2315 2314 2313 
3 2283 2313 2312 
3 2253 2316 2283 
3 2313 2283 2316 
3 2284 2317 2286 
3 2284 2283 2317 
3 2317 2318 2286 
3 2317 2319 2318 
3 2318 2320 2286 
3 507 2321 509 
3 2320 2321 2286 
3 2320 509 2321 
3 2286 2321 507 
3 2322 2323 2324 
3 2323 2314 2325 
3 2312 2314 2326 
3 2248 511 2289 
3 2248 2289 2247 
3 2247 2327 2245 
3 2242 2327 2328 
3 2327 2247 2329 
3 2327 2329 2328 
3 2327 2242 2244 
3 2327 2244 2245 
3 2242 2328 2330 
3 2242 2331 2243 
3 2253 2331 2316 
3 2253 2243 2331 
3 2331 2330 2316 
3 2331 2242 2330 
3 2332 2333 2334 
3 2335 2336 2337 
3 2329 2338 2336 
3 2329 2336 2339 
3 2329 2339 2328 
3 2336 2335 2333 
3 2339 2336 2333 
3 2339 2333 2340 
3 2339 2341 2328 
3 2330 2328 2341 
3 2330 2341 2342 
3 2315 2316 2342 
3 2330 2342 2316 
3 2341 2339 2340 
3 2341 2340 2342 
3 2343 2344 2345 
3 2306 2346 2347 
3 2306 2347 521 
3 2301 2347 2346 
3 2301 521 2347 
3 2291 2290 2348 
3 2349 2348 2290 
3 2349 2350 2348 
3 2291 2351 550 
3 551 2351 2350 
3 551 550 2351 
3 2351 2348 2350 
3 2351 2291 2348 
3 2301 2346 2352 
3 2301 2352 2290 
3 2349 2352 2346 
3 2349 2290 2352 
3 534 538 536 
3 2353 536 538 
3 539 2354 549 
3 538 549 2354 
3 2353 538 2354 
3 2353 2354 2355 
3 500 509 2356 
3 2320 548 2356 
3 2320 2356 509 
3 537 2356 548 
3 537 500 2356 
3 549 2357 548 
3 549 538 2357 
3 537 548 2357 
3 537 2357 538 
3 543 2358 2319 
3 543 542 2358 
3 2318 2319 2358 
3 557 559 2359 
3 2360 2322 2359 
3 2324 2361 2322 
3 2359 2322 2361 
3 2359 2361 557 
3 2362 2363 2364 
3 540 2365 541 
3 2366 2365 2367 
3 539 541 2368 
3 2362 2369 2368 
3 2365 540 543 
3 2365 543 2367 
3 549 540 539 
3 549 542 540 
3 2367 2370 2371 
3 2326 2370 2319 
3 2326 2371 2370 
3 543 2319 2370 
3 543 2370 2367 
3 2323 2372 2314 
3 2323 2322 2372 
3 2372 2322 2373 
3 2372 2373 2371 
3 2374 2375 2376 
3 2375 2325 2377 
3 2375 2377 2378 
3 2379 2376 2380 
3 2375 2378 2380 
3 2375 2380 2376 
3 2315 2342 2377 
3 2340 2381 2342 
3 2340 2378 2381 
3 2377 2342 2381 
3 2377 2381 2378 
3 2340 2332 2378 
3 2340 2333 2332 
3 2382 2383 2384 
3 2385 2386 2387 
3 2332 2379 2380 
3 2332 2380 2378 
3 2379 2388 2376 
3 2389 2376 2388 
3 2385 2387 2388 
3 2385 2388 2379 
3 2390 2391 2392 
3 547 2393 2394 
3 2353 2393 536 
3 546 2393 547 
3 546 536 2393 
3 547 2394 2395 
3 554 556 2395 
3 553 2395 556 
3 553 547 2395 
3 2396 2397 2398 
3 2399 2400 2401 
3 2401 2402 2398 
3 554 2403 2404 
3 2403 2394 2405 
3 2369 2406 2405 
3 2403 2405 2406 
3 2403 2406 2404 
3 2368 2405 2355 
3 2368 2369 2405 
3 2399 2404 2400 
3 2400 2404 2406 
3 2354 539 2355 
3 2368 2355 539 
3 2374 2407 2324 
3 2407 2361 2324 
3 2407 557 2361 
3 552 2408 550 
3 2409 2410 2411 
3 2409 2411 2412 
3 2413 2411 2410 
3 2413 2412 2411 
3 2414 2415 2412 
3 2409 2412 2415 
3 2409 2415 2416 
3 2417 2418 2419 
3 2413 2419 2418 
3 2413 2418 2412 
3 2420 2416 2414 
3 2415 2414 2416 
3 2414 2412 2421 
3 2417 2422 2421 
3 2423 2414 2424 
3 2421 2422 2424 
3 2421 2424 2414 
3 2303 2294 2425 
3 2293 2425 2294 
3 2420 2426 2427 
3 2423 2426 2414 
3 2426 2420 2414 
3 2343 2345 2427 
3 2425 2427 2345 
3 2425 2345 2303 
3 2428 2429 2430 
3 2431 2430 2429 
3 2431 2429 2343 
3 2431 2343 2427 
3 2432 2429 2433 
3 2428 2433 2429 
3 2432 2343 2429 
3 2432 2344 2343 
3 2434 2435 2392 
3 2436 2435 2437 
3 2434 2438 2439 
3 2440 2439 2438 
3 2440 2438 2441 
3 2441 2442 2443 
3 2441 2444 2442 
3 2445 2443 2442 
3 2446 2447 2444 
3 2445 2447 2448 
3 2446 2444 2449 
3 2450 2449 2444 
3 2450 2444 2441 
3 2395 2394 2403 
3 2395 2403 554 
3 2451 2452 2453 
3 2451 2453 2454 
3 2451 2454 2455 
3 2455 2456 2398 
3 2401 2398 2456 
3 2401 2456 2399 
3 2454 2456 2455 
3 2454 2399 2456 
3 2399 2457 2404 
3 554 2404 2457 
3 2458 2459 2460 
3 2374 2376 2461 
3 2389 2461 2376 
3 2389 2462 2463 
3 2464 2463 2462 
3 560 2465 561 
3 560 2466 2465 
3 2464 561 2465 
3 2407 2466 560 
3 2407 560 557 
3 2467 2468 2469 
3 2470 2471 2472 
3 2467 2473 2468 
3 2470 2473 2474 
3 2475 2410 2408 
3 2475 2476 2477 
3 2478 2424 2422 
3 2478 2423 2424 
3 2431 2426 2423 
3 2431 2427 2426 
3 2478 2430 2479 
3 2478 2479 2423 
3 2431 2479 2430 
3 2431 2423 2479 
3 2480 2481 2482 
3 2483 2482 2481 
3 2481 2484 2483 
3 2481 2485 2484 
3 2484 2486 2483 
3 2484 2487 2486 
3 2486 2487 2488 
3 2489 2490 2491 
3 2491 2492 2493 
3 2491 2494 2492 
3 2495 2493 2492 
3 2495 2492 2494 
3 2495 2494 2417 
3 2495 2417 2419 
3 2496 2491 2490 
3 2496 2494 2491 
3 2417 2494 2422 
3 2496 2422 2494 
3 2421 2418 2417 
3 2421 2412 2418 
3 2497 2498 2499 
3 2499 2500 2501 
3 2502 2503 2504 
3 2505 2504 2503 
3 2506 2507 2508 
3 2509 2510 568 
3 2511 2510 2512 
3 2513 2510 2509 
3 2513 2509 2514 
3 568 2515 2509 
3 571 2515 568 
3 571 2516 2515 
3 2517 2471 2518 
3 2519 2518 2471 
3 2517 2518 2520 
3 2521 2520 2518 
3 2522 2523 2524 
3 2523 2525 2526 
3 2521 2518 2526 
3 2519 2527 2518 
3 2526 2518 2527 
3 2528 2529 2530 
3 2529 2528 2531 
3 2529 2531 2477 
3 2530 2532 2528 
3 2533 2532 2534 
3 2532 2530 2535 
3 2532 2535 2534 
3 563 2536 2537 
3 564 563 2537 
3 564 2537 2538 
3 2539 2532 2533 
3 2540 2528 2541 
3 2540 2541 2539 
3 2532 2541 2528 
3 2532 2539 2541 
3 2540 2539 2542 
3 2540 2542 2419 
3 2495 2542 2539 
3 2495 2419 2542 
3 2495 2543 2493 
3 2495 2539 2543 
3 2544 2493 2543 
3 2533 2545 2539 
3 2544 2545 562 
3 563 2545 2533 
3 563 562 2545 
3 2533 2534 2536 
3 2533 2536 563 
3 2546 2547 2448 
3 2546 2485 2547 
3 2445 2448 2547 
3 2445 2547 2485 
3 2480 2443 2548 
3 2445 2485 2548 
3 2445 2548 2443 
3 2546 2487 2485 
3 2484 2485 2487 
3 2480 2549 2443 
3 2480 2550 2549 
3 2551 2443 2549 
3 2551 2549 2550 
3 2550 2552 2553 
3 2480 2552 2550 
3 2480 2482 2552 
3 2481 2480 2548 
3 2481 2548 2485 
3 2554 565 2555 
3 2451 2455 2555 
3 2455 2398 2397 
3 567 2556 565 
3 567 2452 2556 
3 2451 2556 2452 
3 2557 2558 2559 
3 2557 577 2558 
3 2558 2560 2559 
3 2397 2561 2554 
3 2560 2561 2562 
3 2560 2554 2561 
3 2563 2560 2562 
3 2564 2565 2566 
3 2396 2567 2568 
3 2396 2568 2569 
3 2570 2569 2568 
3 2570 2562 2569 
3 2458 2460 2568 
3 2570 2568 2460 
3 2571 2572 2516 
3 2570 2573 2563 
3 2570 2460 2573 
3 2570 2563 2562 
3 2574 2575 2576 
3 2574 2577 2578 
3 2574 2579 2577 
3 2512 2578 2511 
3 2577 2511 2578 
3 2544 562 2580 
3 2544 2580 2581 
3 564 2538 2582 
3 2583 2582 2538 
3 564 2584 562 
3 2580 562 2584 
3 2582 2585 2584 
3 2584 564 2582 
3 580 2586 582 
3 580 579 2586 
3 2582 2587 2585 
3 2586 2587 2582 
3 2586 579 2587 
3 2489 2581 2588 
3 2589 2590 2591 
3 2588 2581 2591 
3 2591 2592 2589 
3 2591 2581 2592 
3 2580 2592 2581 
3 2486 2593 2483 
3 2489 2593 2490 
3 2590 2594 2482 
3 2552 2482 2594 
3 2552 2594 597 
3 2552 597 2595 
3 2552 2595 2553 
3 597 2596 596 
3 2589 2596 2590 
3 2589 596 2596 
3 2596 597 2594 
3 2596 2594 2590 
3 2482 2597 2590 
3 2482 2483 2597 
3 2588 2597 2483 
3 2598 2599 2600 
3 2601 2602 2603 
3 565 2554 2604 
3 2558 577 2604 
3 578 577 2605 
3 2557 2605 577 
3 566 2604 577 
3 566 565 2604 
3 2606 2607 2608 
3 603 2609 2610 
3 2608 2607 2610 
3 570 2611 2609 
3 570 569 2611 
3 2608 2611 569 
3 605 603 2612 
3 2610 2607 2613 
3 2610 2613 603 
3 2612 603 2613 
3 571 572 2516 
3 2614 2516 572 
3 2615 2576 2616 
3 2616 2617 2618 
3 2616 2576 2617 
3 568 2619 569 
3 2620 569 2619 
3 2620 2619 2511 
3 2620 2511 2577 
3 2510 2619 568 
3 2510 2511 2619 
3 2589 2621 596 
3 595 596 2621 
3 2587 2621 2589 
3 2587 579 2621 
3 2587 2589 2622 
3 2587 2622 2585 
3 2592 2622 2589 
3 2592 2585 2622 
3 2583 582 2586 
3 2583 2586 2582 
3 2623 2624 2625 
3 2626 2627 2624 
3 2505 2627 2504 
3 573 575 2628 
3 2629 2630 2628 
3 2631 2632 2633 
3 2633 2634 2635 
3 2628 2630 2634 
3 2628 2634 573 
3 2636 2637 2630 
3 2603 2602 2638 
3 2603 2638 2639 
3 2640 2638 2602 
3 2640 2639 2638 
3 2603 2639 2641 
3 2603 2641 2642 
3 2643 2641 2639 
3 2643 2642 2641 
3 576 2644 575 
3 576 2639 2644 
3 2640 575 2644 
3 2640 2644 2639 
3 576 2645 2639 
3 2643 2639 2645 
3 576 2646 2645 
3 2646 576 574 
3 2646 574 591 
3 2647 2648 2649 
3 2645 2650 2647 
3 2648 2650 2651 
3 2648 2647 2650 
3 2646 2651 2650 
3 2646 2650 2645 
3 608 2652 2653 
3 2654 2653 2652 
3 2654 2655 2653 
3 602 608 2653 
3 2655 2654 2656 
3 2614 2656 2654 
3 2614 572 2656 
3 2609 603 2657 
3 602 2657 603 
3 2657 2658 2609 
3 2657 2655 2658 
3 2658 2656 572 
3 2658 2655 2656 
3 2654 2659 2614 
3 570 2658 572 
3 570 2609 2658 
3 589 583 588 
3 589 580 583 
3 2660 2661 2662 
3 2663 2664 2665 
3 2502 2504 2666 
3 2664 2663 2666 
3 2664 2666 2504 
3 2633 2667 2631 
3 2633 2635 2667 
3 2637 2668 2635 
3 2637 2663 2668 
3 2667 2635 2668 
3 2667 2668 2669 
3 2670 2667 2669 
3 2668 2663 2665 
3 2668 2665 2669 
3 2671 2672 2659 
3 2671 2673 2672 
3 2674 2672 2675 
3 2557 2559 2675 
3 2674 2675 2559 
3 2676 2557 2675 
3 2676 2605 2557 
3 2677 2678 2679 
3 2671 2679 2678 
3 2657 602 2653 
3 2657 2653 2655 
3 2606 2680 2681 
3 2606 2681 2607 
3 2682 2607 2681 
3 2683 2684 2685 
3 2661 594 601 
3 2661 601 2662 
3 581 2621 579 
3 2621 581 599 
3 2621 599 595 
3 600 611 2686 
3 600 584 611 
3 586 611 584 
3 2687 628 2688 
3 2686 2688 628 
3 2686 611 2688 
3 2688 611 612 
3 2688 612 2687 
3 598 600 610 
3 598 610 593 
3 601 609 2662 
3 615 2689 609 
3 609 2689 2662 
3 2690 2632 2691 
3 2691 2632 2692 
3 2631 645 2692 
3 2631 2692 2632 
3 2690 2693 2632 
3 2633 2632 2693 
3 592 2693 2690 
3 592 573 2693 
3 2694 2695 2696 
3 590 2696 2695 
3 2696 2691 2694 
3 2696 2690 2691 
3 592 2690 590 
3 2696 590 2690 
3 2695 2694 2697 
3 2697 2698 2699 
3 2697 2699 2695 
3 590 2700 591 
3 2695 2700 590 
3 2700 2699 2701 
3 2700 2695 2699 
3 2702 2703 2704 
3 2705 2703 2698 
3 2703 2706 2698 
3 2703 2702 2706 
3 2699 2698 2706 
3 2699 2706 2701 
3 2707 2708 2709 
3 2700 2701 2709 
3 2700 2709 2651 
3 2646 2710 2651 
3 2646 591 2710 
3 2700 2651 2710 
3 2700 2710 591 
3 2648 2651 2711 
3 2709 2708 2711 
3 2709 2711 2651 
3 2648 2712 2649 
3 2712 2713 2714 
3 2652 2677 2679 
3 2652 2679 2654 
3 623 605 2715 
3 2612 2716 2715 
3 2612 2715 605 
3 2717 623 2715 
3 607 604 606 
3 607 602 604 
3 2718 2719 2720 
3 2721 2722 2723 
3 2721 2724 2722 
3 2725 2723 2722 
3 2726 2727 2728 
3 2727 2729 2728 
3 2730 2731 2732 
3 2733 2732 2731 
3 2730 2732 2734 
3 2733 2735 2736 
3 2733 2736 2732 
3 2737 2738 2739 
3 2740 2741 2742 
3 2742 2743 2740 
3 2625 2744 2623 
3 2625 2745 2744 
3 615 614 2746 
3 615 2746 2689 
3 2744 2746 614 
3 2744 2689 2746 
3 613 2747 2686 
3 600 2747 609 
3 600 2686 2747 
3 2747 615 609 
3 2747 613 615 
3 2624 2623 2748 
3 617 2748 2623 
3 617 622 2748 
3 2626 2624 2748 
3 617 2749 614 
3 617 2623 2749 
3 2744 614 2749 
3 2744 2749 2623 
3 2748 622 621 
3 2748 621 2626 
3 2664 2504 2627 
3 2664 2627 2626 
3 621 2750 2626 
3 2664 2626 2750 
3 2664 2750 2665 
3 2669 2665 2751 
3 621 619 2751 
3 2751 2750 621 
3 2751 2665 2750 
3 2670 2751 619 
3 2670 2669 2751 
3 645 2631 2752 
3 645 2752 643 
3 2670 643 2752 
3 2753 2754 618 
3 619 618 2754 
3 2754 2670 619 
3 2754 643 2670 
3 2707 2755 2708 
3 2713 2708 2755 
3 2756 2757 2758 
3 2759 2758 2757 
3 2760 2761 2762 
3 2598 2762 2761 
3 2760 2763 2761 
3 647 2764 648 
3 646 648 2765 
3 2765 2766 2767 
3 2765 2767 646 
3 2768 2769 2770 
3 2768 2714 2769 
3 2768 2770 2766 
3 2767 2766 2770 
3 2767 2771 646 
3 2767 2770 2771 
3 2772 2773 2774 
3 2775 2776 2777 
3 2772 2778 2779 
3 2775 2777 2779 
3 2705 2780 2781 
3 2782 2781 2780 
3 2782 2783 2784 
3 2707 2706 2702 
3 2702 2704 2785 
3 2756 2758 2785 
3 2707 2702 2786 
3 2785 2758 2786 
3 2785 2786 2702 
3 2787 2788 2789 
3 2790 2788 2716 
3 2788 2791 2716 
3 2788 2787 2791 
3 2715 2716 2791 
3 2715 2791 2717 
3 2792 2793 2794 
3 2789 2795 2794 
3 2789 2794 2796 
3 2797 2798 2799 
3 2800 2801 2799 
3 2800 2799 2798 
3 2800 2798 2802 
3 2803 2804 2795 
3 637 636 2805 
3 2805 2806 637 
3 638 2807 636 
3 638 2721 2807 
3 2723 2807 2721 
3 2727 636 2807 
3 2727 2807 2723 
3 2808 2809 2810 
3 2728 2811 2726 
3 2812 2811 2813 
3 2812 2726 2811 
3 2810 2813 2814 
3 2811 2814 2813 
3 2811 2728 2814 
3 2815 2816 2817 
3 2816 2810 2809 
3 2805 2818 2819 
3 2805 2726 2818 
3 2812 2819 2818 
3 2812 2818 2726 
3 2727 2726 2820 
3 2727 2820 636 
3 2805 2820 2726 
3 2805 636 2820 
3 2686 628 613 
3 627 613 628 
3 628 2687 2821 
3 628 2821 625 
3 629 625 2821 
3 627 616 633 
3 627 633 613 
3 631 642 2822 
3 631 2822 630 
3 634 2822 642 
3 634 630 2822 
3 631 632 640 
3 631 640 642 
3 2823 2824 2825 
3 654 646 2825 
3 2791 2787 2826 
3 2791 2826 2717 
3 2789 2796 2827 
3 2789 2827 2787 
3 2828 2829 2830 
3 2831 2830 2829 
3 2721 2828 2724 
3 2830 2724 2828 
3 638 2832 2721 
3 2832 2828 2721 
3 2832 2833 2828 
3 2834 2835 2836 
3 2832 2837 2838 
3 2835 2838 2837 
3 2835 2834 2838 
3 2833 2838 2834 
3 2833 2832 2838 
3 638 637 2839 
3 638 2839 2837 
3 2806 2839 637 
3 2837 2832 638 
3 2742 2741 2840 
3 2841 2778 2842 
3 2841 2842 2843 
3 2815 2817 2844 
3 2841 2843 2844 
3 2841 2844 2817 
3 2845 2846 2815 
3 2812 2813 2847 
3 2846 2847 2813 
3 2812 2847 2848 
3 2812 2848 2819 
3 641 639 2849 
3 641 2849 2850 
3 2851 2849 639 
3 2851 2850 2849 
3 641 2850 2753 
3 644 2753 2850 
3 641 2753 2852 
3 641 2852 642 
3 618 2852 2753 
3 618 642 2852 
3 644 2754 2753 
3 644 643 2754 
3 2784 2783 2853 
3 2784 2853 2854 
3 2855 2853 2783 
3 2855 2854 2853 
3 2784 2854 2856 
3 2784 2856 2704 
3 2857 2854 2858 
3 2855 2859 2858 
3 2855 2858 2854 
3 2856 2785 2704 
3 2856 2756 2785 
3 2857 2860 2854 
3 2856 2854 2756 
3 2860 2756 2854 
3 2861 2824 2857 
3 2861 2857 2858 
3 2824 2862 2860 
3 2824 2860 2857 
3 2863 2864 2865 
3 2861 2865 2864 
3 655 2825 2866 
3 2861 2864 2866 
3 2697 2867 2698 
3 2705 2698 2867 
3 2705 2867 2868 
3 2705 2868 2780 
3 2697 2694 2869 
3 2697 2869 2867 
3 2870 2871 2872 
3 2870 2873 2871 
3 2871 2873 2874 
3 2869 2694 2873 
3 2870 2867 2869 
3 2870 2869 2873 
3 2794 2793 2796 
3 2797 2875 2798 
3 2804 2798 2875 
3 2804 2875 2792 
3 2804 2792 2794 
3 2804 2794 2795 
3 2792 2876 2793 
3 2877 2836 2878 
3 2878 2879 2880 
3 2880 2879 2881 
3 2880 2881 2882 
3 2880 2882 2801 
3 2881 2883 2884 
3 2885 2886 2887 
3 2886 2881 2879 
3 2886 2883 2881 
3 2799 2801 2882 
3 2799 2882 2797 
3 2797 2882 2888 
3 2875 2797 2889 
3 2888 2889 2797 
3 2887 2890 2891 
3 2878 2836 2879 
3 2890 2879 2836 
3 2886 2879 2890 
3 2886 2890 2887 
3 2835 2892 2836 
3 2835 2891 2892 
3 2890 2836 2892 
3 2890 2892 2891 
3 2891 2893 2887 
3 2893 2891 2894 
3 2893 2894 2895 
3 2896 2897 2837 
3 2835 2837 2897 
3 2835 2897 2891 
3 2896 2837 2839 
3 2894 2897 2896 
3 2894 2891 2897 
3 2898 2895 2894 
3 2851 2899 2850 
3 2900 2850 2899 
3 2899 2851 2901 
3 2900 644 2850 
3 2900 645 644 
3 2871 2902 2903 
3 2871 2874 2902 
3 2900 2904 645 
3 2692 645 2904 
3 2902 2874 2904 
3 2902 2904 2900 
3 2902 2900 2899 
3 2772 2774 2905 
3 2906 2907 2778 
3 2842 2778 2907 
3 657 2842 2907 
3 657 2843 2842 
3 2907 2906 2908 
3 657 2909 658 
3 657 2907 2909 
3 2908 658 2909 
3 2908 2909 2907 
3 2764 647 650 
3 2764 650 2774 
3 650 2910 2774 
3 2911 2910 652 
3 650 649 2912 
3 653 2912 649 
3 653 652 2912 
3 2912 2910 650 
3 2912 652 2910 
3 2913 2906 2905 
3 2913 2905 2911 
3 2911 652 2914 
3 651 2914 652 
3 2913 2911 2914 
3 2913 2914 2915 
3 2905 2774 2911 
3 2910 2911 2774 
3 660 658 2908 
3 2908 2916 660 
3 2913 2915 2917 
3 2913 2917 2916 
3 2913 2916 2908 
3 2913 2908 2906 
3 2865 2859 2918 
3 2865 2918 2863 
3 2863 2919 2864 
3 656 2864 2919 
3 2919 2863 2920 
3 2919 2920 2921 
3 2914 651 2922 
3 2914 2922 2915 
3 653 2921 651 
3 2825 655 654 
3 2866 2864 656 
3 2866 656 655 
3 653 2919 2921 
3 653 656 2919 
3 2870 2872 2923 
3 2870 2923 2924 
3 2868 2925 2924 
3 2868 2867 2925 
3 2870 2924 2925 
3 2870 2925 2867 
3 2868 2924 2926 
3 2868 2926 2780 
3 2816 2815 2927 
3 2846 2927 2815 
3 2846 2813 2927 
3 2844 2843 2845 
3 2844 2845 2815 
3 2928 2847 2846 
3 2928 2846 2845 
3 657 2929 2843 
3 2928 2845 664 
3 2929 664 2845 
3 659 664 2929 
3 659 2929 657 
3 2930 2895 2931 
3 2932 2933 2934 
3 2935 2933 2936 
3 2935 2934 2933 
3 2931 2936 2933 
3 2931 2933 2932 
3 2898 2931 2895 
3 2898 2936 2931 
3 2930 2937 2895 
3 2893 2895 2937 
3 2893 2937 2938 
3 2893 2938 2887 
3 2887 2938 2885 
3 2886 2885 2883 
3 2931 2932 2930 
3 2937 2930 2939 
3 2937 2939 2938 
3 2940 663 665 
3 2928 2940 2941 
3 2848 2847 2942 
3 2941 2943 2942 
3 2848 2944 2819 
3 2945 2819 2944 
3 2945 2944 2946 
3 2945 2946 2935 
3 2945 2935 2936 
3 2935 2946 2947 
3 2948 2947 2946 
3 2948 2949 2947 
3 2944 2943 2950 
3 2944 2950 2946 
3 2948 2950 2943 
3 2948 2946 2950 
3 2951 2952 2953 
3 2948 2954 2953 
3 2948 2943 2954 
3 2951 2953 2954 
3 2951 2954 2943 
3 2948 2953 2955 
3 2948 2955 2949 
3 2941 2951 2943 
3 2941 2940 2951 
3 2928 664 2940 
3 663 2940 664 
3 1471 1374 1483 
3 1471 1483 1482 
3 2956 2957 1481 
3 1482 2957 1471 
3 2957 1482 1481 
3 236 235 1534 
3 236 1534 169 
3 235 228 1532 
3 51 775 757 
3 51 39 775 
3 1259 1258 187 
3 1776 1770 300 
3 1937 1879 1878 
3 1895 1894 381 
3 1904 386 1879 
3 1908 1906 1905 
3 1908 1907 1906 
3 2667 2670 2752 
3 2667 2752 2631 
3 2875 2889 2876 
3 2875 2876 2792 
3 2929 2845 2843 
3 1048 935 2958 
3 1050 2958 935 
3 1038 1048 2958 
3 126 1206 2959 
3 1200 2959 1206 
3 1200 2960 2959 
3 1244 2961 1240 
3 1244 1243 2961 
3 2961 2962 1241 
3 2961 1241 1240 
3 1221 1340 2963 
3 2964 2963 1340 
3 1645 223 222 
3 1645 1636 223 
3 273 233 1650 
3 273 1650 293 
3 1832 332 2965 
3 1832 330 332 
3 332 335 2965 
3 2966 2965 335 
3 339 2967 335 
3 2968 2969 1858 
3 1861 1858 2969 
3 2968 2970 2971 
3 2967 2971 2970 
3 2967 2972 2971 
3 2969 2968 2971 
3 2969 2971 2972 
3 1940 1942 2973 
3 1903 2973 1942 
3 1943 1940 2973 
3 1943 2973 1945 
3 2974 2975 2281 
3 555 554 2976 
3 2457 2976 554 
3 2457 2977 2976 
3 2344 2432 2978 
3 2979 2978 2432 
3 594 2661 2595 
3 594 2595 597 
3 665 2952 2980 
3 665 2980 2940 
3 2951 2980 2952 
3 2951 2940 2980 
3 719 683 682 
3 682 675 718 
3 682 718 719 
3 719 720 2981 
3 719 2981 683 
3 690 2981 720 
3 690 683 2981 
3 684 683 690 
3 684 690 689 
3 2982 2983 778 
3 780 778 2984 
3 2983 2985 2984 
3 2983 2984 778 
3 2986 2987 2985 
3 2988 2987 2989 
3 2988 687 2990 
3 685 2991 2992 
3 765 763 2992 
3 686 685 2993 
3 2992 763 2993 
3 2992 2993 685 
3 686 688 2994 
3 686 2994 687 
3 762 688 686 
3 762 689 688 
3 690 720 2995 
3 690 2995 688 
3 2994 2995 720 
3 2994 688 2995 
3 684 693 2996 
3 684 2996 678 
3 671 2996 693 
3 671 678 2996 
3 699 697 698 
3 699 695 697 
3 699 700 737 
3 699 737 695 
3 2984 2985 2990 
3 2984 2990 2997 
3 2997 2998 2999 
3 2994 2998 687 
3 2994 2999 2998 
3 2990 687 2998 
3 2990 2998 2997 
3 780 2997 45 
3 2997 2999 45 
3 712 3000 720 
3 2994 3000 2999 
3 2994 720 3000 
3 46 3001 712 
3 3000 3001 2999 
3 3000 712 3001 
3 45 2999 3001 
3 45 3001 46 
3 859 858 3002 
3 3003 3002 858 
3 857 858 859 
3 3003 3004 3005 
3 856 3006 858 
3 3007 3006 3008 
3 856 749 3009 
3 3010 3009 749 
3 3010 3008 3009 
3 3009 3006 856 
3 3009 3008 3006 
3 729 728 3011 
3 738 3011 728 
3 738 739 3011 
3 3010 3011 739 
3 3010 729 3011 
3 766 3012 739 
3 766 814 3012 
3 3010 739 3012 
3 3010 3012 3008 
3 3010 749 3013 
3 3010 3013 729 
3 732 3013 749 
3 732 729 3013 
3 729 732 3014 
3 729 3014 730 
3 731 3014 732 
3 731 730 3014 
3 695 735 3015 
3 695 3015 706 
3 734 3015 735 
3 734 706 3015 
3 726 734 728 
3 726 708 734 
3 753 853 3016 
3 753 3016 751 
3 827 751 3016 
3 754 747 3017 
3 754 3017 753 
3 854 3017 747 
3 854 753 3017 
3 770 3018 3019 
3 770 765 3018 
3 3018 765 2992 
3 3004 3020 3007 
3 3006 3007 3020 
3 3006 3020 858 
3 812 3007 3021 
3 812 3021 814 
3 3008 3021 3007 
3 3022 3023 815 
3 3023 3005 3004 
3 812 3024 3007 
3 812 815 3024 
3 3023 3024 815 
3 3012 814 3021 
3 3012 3021 3008 
3 767 773 814 
3 813 814 773 
3 814 766 767 
3 790 776 786 
3 790 789 776 
3 3025 3026 3027 
3 3028 3029 3027 
3 3025 3027 3029 
3 791 3030 3031 
3 3026 3031 3030 
3 3026 3030 3027 
3 3028 3027 3032 
3 791 793 3032 
3 3033 3032 793 
3 3033 3028 3032 
3 3033 3019 3018 
3 2988 2989 2991 
3 2988 2991 685 
3 2988 685 687 
3 3034 3035 3036 
3 3034 3036 3037 
3 3034 3037 3038 
3 3039 3040 3037 
3 3039 3041 3040 
3 3042 3040 3041 
3 2982 839 3043 
3 3042 3041 3043 
3 777 839 778 
3 2982 778 839 
3 837 839 777 
3 790 3044 783 
3 779 783 777 
3 3044 777 783 
3 2984 2997 780 
3 780 45 3045 
3 780 3045 779 
3 781 3045 45 
3 781 779 3045 
3 781 782 3046 
3 781 3046 783 
3 790 3046 782 
3 790 783 3046 
3 837 3044 840 
3 837 777 3044 
3 786 785 3047 
3 786 3047 840 
3 843 3047 785 
3 843 840 3047 
3 786 3048 790 
3 786 840 3048 
3 3044 790 3048 
3 3044 3048 840 
3 794 793 3049 
3 792 3049 793 
3 792 3050 3049 
3 3032 3027 3030 
3 3032 3030 791 
3 3051 3052 3031 
3 3051 3053 3052 
3 791 3031 3054 
3 3052 3054 3031 
3 3052 3055 3054 
3 792 791 3054 
3 772 770 3056 
3 772 3056 795 
3 3019 3056 770 
3 3019 795 3056 
3 795 3033 793 
3 795 3019 3033 
3 797 796 826 
3 797 826 816 
3 800 797 817 
3 800 817 803 
3 3025 2986 3057 
3 3058 3059 3060 
3 3059 3061 3060 
3 810 3050 3062 
3 810 3062 815 
3 3022 815 3062 
3 810 794 3049 
3 810 3049 3050 
3 817 816 819 
3 817 819 804 
3 802 58 822 
3 802 822 820 
3 822 821 3063 
3 822 3063 820 
3 827 3063 821 
3 3016 853 852 
3 3016 852 827 
3 3064 3065 846 
3 845 846 3065 
3 3066 966 3067 
3 3068 3064 3067 
3 3068 3067 966 
3 3069 3070 829 
3 846 3070 3064 
3 834 3071 846 
3 3070 846 3071 
3 3070 3071 829 
3 3072 3069 3073 
3 69 3073 3069 
3 3072 3074 3069 
3 3070 3069 3074 
3 3070 3074 3064 
3 831 69 829 
3 3069 829 69 
3 830 3071 834 
3 830 829 3071 
3 843 836 844 
3 843 785 836 
3 3038 3037 3075 
3 3038 3075 3076 
3 3042 3076 3075 
3 838 3077 839 
3 3042 3077 3076 
3 838 842 3078 
3 3079 3076 3078 
3 3077 3078 3076 
3 3077 838 3078 
3 3079 3080 3081 
3 3082 3083 3081 
3 3081 3083 3038 
3 3079 3084 3080 
3 845 3084 842 
3 3084 3079 3078 
3 3084 3078 842 
3 3084 845 3065 
3 3084 3065 3080 
3 847 844 836 
3 847 836 834 
3 3058 3036 3085 
3 3085 3036 3086 
3 3085 3086 3087 
3 3088 3089 3087 
3 3085 3087 3089 
3 3059 3090 3091 
3 3059 3058 3090 
3 3092 3090 3089 
3 3092 3091 3090 
3 3059 3091 3093 
3 3094 3093 3091 
3 3094 3095 3093 
3 3026 3061 3095 
3 3093 3095 3061 
3 3051 3031 3095 
3 3026 3095 3031 
3 851 820 3063 
3 851 3063 827 
3 862 861 863 
3 862 863 848 
3 849 863 3096 
3 849 3096 888 
3 926 3096 863 
3 926 888 3096 
3 861 3097 3098 
3 861 3098 863 
3 926 3098 3097 
3 926 863 3098 
3 859 861 855 
3 851 892 3099 
3 851 3099 820 
3 801 3099 892 
3 801 820 3099 
3 799 801 3100 
3 799 3100 866 
3 892 3100 801 
3 892 866 3100 
3 864 799 3101 
3 864 3101 90 
3 865 3101 799 
3 865 90 3101 
3 3102 3103 930 
3 930 3104 931 
3 3103 3104 930 
3 3103 3105 3104 
3 3106 3107 3053 
3 3106 3105 3107 
3 3108 3107 3109 
3 3103 3109 3110 
3 3103 3110 3105 
3 3107 3110 3109 
3 3107 3105 3110 
3 3102 3111 3112 
3 3112 3111 898 
3 3108 3109 3113 
3 3112 3113 3109 
3 877 3073 69 
3 3114 3115 908 
3 86 908 3115 
3 3115 87 86 
3 3115 3116 87 
3 3117 3072 3116 
3 3073 3116 3072 
3 3116 3073 3118 
3 3116 3118 87 
3 876 87 3118 
3 877 876 3118 
3 877 3118 3073 
3 879 3119 882 
3 3120 3119 3121 
3 3119 3122 882 
3 3119 3120 3122 
3 3123 3124 3125 
3 3122 3125 3124 
3 3122 3124 882 
3 882 881 3126 
3 882 3126 879 
3 3127 3126 881 
3 3128 987 3129 
3 3128 3129 3130 
3 3035 3131 3130 
3 3128 3130 3131 
3 3035 3086 3036 
3 3035 3130 3086 
3 3087 3132 3127 
3 3129 3132 3130 
3 3129 3127 3132 
3 3086 3130 3132 
3 3086 3132 3087 
3 880 3129 987 
3 880 3127 3129 
3 3127 881 3133 
3 3127 3133 3087 
3 3088 3133 881 
3 3088 3087 3133 
3 880 3126 3127 
3 880 879 3126 
3 984 3134 3135 
3 878 984 3135 
3 878 3135 3121 
3 878 3121 3119 
3 878 3119 879 
3 880 987 983 
3 880 983 878 
3 3136 3137 3138 
3 3136 3138 3139 
3 3136 3140 3137 
3 3094 3137 3140 
3 3136 3139 3141 
3 3136 3141 3142 
3 3143 3141 3139 
3 3143 3142 3141 
3 3136 3142 3144 
3 3136 3144 3140 
3 3106 3144 3142 
3 3106 3140 3144 
3 3051 3094 3140 
3 3051 3095 3094 
3 3094 3091 3137 
3 3092 3137 3091 
3 3051 3140 3053 
3 3106 3053 3140 
3 3106 3142 3145 
3 3106 3145 3105 
3 3088 3146 3089 
3 3092 3089 3146 
3 883 3088 881 
3 883 3146 3088 
3 3092 3146 3138 
3 3092 3138 3137 
3 3138 3146 3147 
3 883 3147 3146 
3 3138 3147 3148 
3 3138 3148 3139 
3 3149 3148 3147 
3 3149 3139 3148 
3 883 882 3150 
3 883 3150 3147 
3 3123 3147 3150 
3 3151 3152 3153 
3 3151 3154 3152 
3 3155 3152 3154 
3 891 3152 3155 
3 886 3153 3156 
3 886 3156 891 
3 3152 3156 3153 
3 3152 891 3156 
3 886 885 3157 
3 886 3157 3153 
3 925 924 885 
3 3157 885 924 
3 3158 3159 924 
3 3157 924 3159 
3 3157 3159 3153 
3 3151 3159 3158 
3 3151 3153 3159 
3 3155 3154 3160 
3 3161 3160 3154 
3 896 3162 914 
3 3160 3163 3162 
3 3160 3162 3155 
3 914 3163 913 
3 3164 913 3163 
3 3162 3163 914 
3 891 3155 3165 
3 891 3165 896 
3 3162 3165 3155 
3 3162 896 3165 
3 3166 3167 3168 
3 3166 3168 3169 
3 3170 3168 3171 
3 3170 3169 3168 
3 3003 3169 3002 
3 3170 3002 3169 
3 861 3172 3097 
3 3170 3172 3002 
3 3170 3097 3172 
3 3173 3097 3171 
3 3170 3171 3097 
3 898 3174 899 
3 3175 3174 3176 
3 3175 899 3174 
3 898 3111 3177 
3 929 3177 3111 
3 929 3176 3177 
3 3177 3176 3174 
3 3177 3174 898 
3 897 899 3178 
3 3022 3178 899 
3 3108 3179 3055 
3 3179 3178 3050 
3 3179 897 3178 
3 792 3179 3050 
3 3062 3178 3022 
3 3062 3050 3178 
3 3022 899 3180 
3 3175 3180 899 
3 3175 3005 3180 
3 3180 3005 3023 
3 3180 3023 3022 
3 3005 3175 3181 
3 3176 3181 3175 
3 3003 3005 3169 
3 3181 3169 3005 
3 3166 3169 3181 
3 3067 3064 3074 
3 3067 3074 3066 
3 3117 3116 3115 
3 3117 3115 3114 
3 3182 3183 3114 
3 3182 963 3183 
3 966 3066 3183 
3 3117 3183 3066 
3 3117 3114 3183 
3 3183 963 964 
3 3183 964 966 
3 1014 3184 911 
3 1014 1011 3184 
3 3185 3184 1011 
3 3185 3186 3184 
3 907 911 908 
3 3184 3186 911 
3 3182 3187 962 
3 3182 3186 3187 
3 3185 962 3187 
3 3185 3187 3186 
3 3182 962 963 
3 961 963 962 
3 3182 3114 3188 
3 3182 3188 3186 
3 908 3188 3114 
3 911 3188 908 
3 911 3186 3188 
3 912 913 3189 
3 912 3189 903 
3 905 903 3189 
3 948 3190 3191 
3 948 905 3190 
3 3190 3189 913 
3 3190 905 3189 
3 3151 3158 3192 
3 3151 3192 3193 
3 3154 3193 3161 
3 3194 3161 3193 
3 3151 3193 3154 
3 3195 3160 3161 
3 1040 3196 3195 
3 1040 3197 3196 
3 3160 3195 3196 
3 3160 3196 3163 
3 919 917 3198 
3 916 3198 917 
3 916 992 3198 
3 920 919 3198 
3 920 3198 992 
3 916 915 3199 
3 3168 3167 915 
3 3199 915 3167 
3 3171 3200 3173 
3 917 3200 915 
3 917 3173 3200 
3 3168 915 3200 
3 3168 3200 3171 
3 916 3199 3201 
3 916 3201 992 
3 3202 992 3201 
3 3203 3204 3205 
3 3206 3204 994 
3 3206 3205 3204 
3 3204 3207 994 
3 3204 3203 3207 
3 3207 3203 918 
3 3207 918 920 
3 993 3207 920 
3 993 994 3207 
3 918 3203 3192 
3 918 3192 3158 
3 924 922 3208 
3 919 3208 922 
3 919 918 3208 
3 3158 924 3208 
3 3158 3208 918 
3 3173 921 923 
3 3173 917 921 
3 3173 923 3209 
3 3173 3209 3097 
3 926 3209 923 
3 926 3097 3209 
3 3210 3211 3212 
3 3213 3211 3214 
3 933 3215 934 
3 3213 3216 3215 
3 3217 3218 3214 
3 3217 3219 3218 
3 3213 3214 3218 
3 3213 3218 3219 
3 3213 3219 3220 
3 3213 3220 3216 
3 3221 3220 3219 
3 3221 3216 3220 
3 3202 3222 3219 
3 3221 3219 3222 
3 3221 3222 3199 
3 932 3223 930 
3 932 934 3223 
3 3102 930 3223 
3 3102 3223 927 
3 929 3111 927 
3 3102 927 3111 
3 3221 3224 3216 
3 927 3225 928 
3 3224 3225 934 
3 3224 928 3225 
3 3223 934 3225 
3 3223 3225 927 
3 3215 3216 934 
3 3224 934 3216 
3 929 3226 3176 
3 3221 3199 3227 
3 3226 3227 3167 
3 3227 3199 3167 
3 3166 3226 3167 
3 932 931 3228 
3 933 3228 3229 
3 933 932 3228 
3 933 3229 3230 
3 3231 3230 3229 
3 3215 3230 3212 
3 3215 933 3230 
3 3143 3232 3142 
3 3143 3233 3234 
3 3149 3233 3139 
3 3143 3139 3233 
3 3104 3235 931 
3 3145 3142 3232 
3 3236 3234 3233 
3 3236 3237 3234 
3 941 942 3238 
3 941 3238 936 
3 937 936 3238 
3 943 946 942 
3 946 3238 942 
3 946 937 3238 
3 947 943 949 
3 947 949 904 
3 1050 948 3191 
3 1050 946 948 
3 3164 3239 3197 
3 3164 3163 3239 
3 3196 3197 3239 
3 3196 3239 3163 
3 1038 2958 3240 
3 1038 3240 1040 
3 3197 1040 3240 
3 3164 3191 3190 
3 3164 3190 913 
3 956 955 958 
3 956 953 955 
3 955 951 3241 
3 955 3241 958 
3 1054 958 3241 
3 3242 3243 3131 
3 965 971 3243 
3 3243 971 3244 
3 3243 3244 3131 
3 973 3244 971 
3 3128 3244 973 
3 3128 3131 3244 
3 985 987 973 
3 3128 973 987 
3 965 3082 966 
3 3068 966 3082 
3 964 961 3245 
3 964 3245 965 
3 972 3245 961 
3 972 965 3245 
3 985 973 967 
3 985 967 3246 
3 985 3246 986 
3 977 3246 967 
3 977 986 3246 
3 1030 1036 3247 
3 3247 3248 1030 
3 3247 3249 3248 
3 974 3250 3251 
3 1031 3251 3250 
3 1031 1030 3251 
3 3248 974 3251 
3 3248 3251 1030 
3 988 3252 989 
3 988 3120 3252 
3 3253 989 3254 
3 3252 3254 989 
3 3252 3255 3254 
3 975 3253 3254 
3 3254 3255 976 
3 3254 976 975 
3 3250 974 3134 
3 976 3134 974 
3 3134 984 3256 
3 3134 3256 3250 
3 976 3257 3134 
3 976 3255 3257 
3 3135 3134 3257 
3 3135 3257 3255 
3 3135 3255 3121 
3 977 982 3258 
3 977 3258 986 
3 1032 3258 982 
3 1032 986 3258 
3 986 1032 3256 
3 986 3256 984 
3 3259 3125 3260 
3 3259 3260 991 
3 988 3260 3125 
3 988 991 3260 
3 3259 3261 3262 
3 3259 3262 3125 
3 3123 3262 3261 
3 3123 3125 3262 
3 1067 3259 991 
3 1067 3263 3259 
3 3259 3263 3261 
3 3236 3261 3263 
3 3150 3124 3123 
3 3150 882 3124 
3 3123 3261 3264 
3 3123 3264 3147 
3 3149 3264 3261 
3 3149 3147 3264 
3 3149 3261 3233 
3 3236 3233 3261 
3 3236 3263 3265 
3 3236 3265 3237 
3 990 989 3266 
3 990 3266 1076 
3 3202 993 992 
3 3202 995 993 
3 996 1157 3267 
3 996 3267 994 
3 3206 3267 1157 
3 3206 994 3267 
3 3217 996 995 
3 3217 3268 996 
3 996 3268 3269 
3 996 3269 1157 
3 3270 3269 3268 
3 3222 3201 3199 
3 3222 3202 3201 
3 3202 3219 3271 
3 3202 3271 995 
3 3217 3271 3219 
3 3217 995 3271 
3 3217 3214 3272 
3 3217 3272 3268 
3 3273 3272 3214 
3 3164 3274 3191 
3 3164 3197 3274 
3 3274 3197 3240 
3 3274 3240 2958 
3 1050 3274 2958 
3 1050 3191 3274 
3 999 953 3275 
3 999 3275 1001 
3 940 3275 953 
3 999 1000 1003 
3 999 1003 954 
3 1111 3276 1002 
3 1111 1110 3276 
3 127 1199 3277 
3 3276 3277 1199 
3 3276 1110 3277 
3 1201 3277 1110 
3 1201 127 3277 
3 1003 1002 3278 
3 1003 3278 1199 
3 3276 3278 1002 
3 3276 1199 3278 
3 940 941 3279 
3 1004 3279 941 
3 1004 1001 3279 
3 3279 1001 3275 
3 3279 3275 940 
3 3280 3281 1010 
3 3280 1084 3281 
3 1083 3281 1084 
3 1007 3281 1083 
3 1008 1010 3281 
3 1008 3281 1007 
3 3280 1010 1009 
3 1012 1013 1017 
3 1012 1017 1016 
3 3185 1011 1016 
3 1012 1016 1011 
3 3185 1016 1020 
3 3185 1020 962 
3 1019 1013 1088 
3 1019 1088 3282 
3 1019 3282 979 
3 1017 1019 1022 
3 1017 1022 1018 
3 3283 3284 3285 
3 3283 3286 3284 
3 3287 3288 3289 
3 3284 3288 3285 
3 3284 3289 3288 
3 3253 3290 989 
3 3266 3290 3287 
3 3266 989 3290 
3 3288 3287 3290 
3 3288 3290 3253 
3 1123 3291 1090 
3 1089 3291 1088 
3 1089 1090 3291 
3 3282 1088 3291 
3 3282 3291 1123 
3 1025 3282 1123 
3 1025 979 3282 
3 1025 1123 1027 
3 1126 1027 1123 
3 1031 3250 1032 
3 3256 1032 3250 
3 1026 1031 1032 
3 1026 1029 1031 
3 3292 3293 3294 
3 3292 3295 3293 
3 3247 3293 3249 
3 3247 3294 3293 
3 1142 3296 1036 
3 1142 3294 3296 
3 3247 1036 3296 
3 3247 3296 3294 
3 1142 1131 3297 
3 1142 3297 3294 
3 1130 3297 1131 
3 1130 3294 3297 
3 1091 3298 3299 
3 3194 3299 3298 
3 3194 3300 3299 
3 3301 1091 3299 
3 3301 3299 3300 
3 1091 3301 1094 
3 1091 1094 1092 
3 3298 1091 3302 
3 3298 3302 3303 
3 1093 3302 1091 
3 1093 3303 3302 
3 1040 3195 3304 
3 3298 3304 3195 
3 3298 3303 3304 
3 1039 3304 3303 
3 1039 1040 3304 
3 3195 3161 3305 
3 3195 3305 3298 
3 3194 3305 3161 
3 3194 3298 3305 
3 950 3241 951 
3 950 1054 3241 
3 1056 1055 105 
3 1056 1000 1055 
3 1058 1060 3306 
3 1106 3306 1060 
3 1058 3306 3307 
3 1058 3307 1195 
3 1196 1059 1058 
3 1196 1194 1059 
3 1192 1061 1059 
3 1192 1063 1061 
3 1130 1134 3292 
3 1130 3292 3294 
3 3283 3308 3286 
3 3309 3310 3311 
3 3312 3310 3313 
3 3309 3314 3315 
3 3316 3315 3314 
3 3315 3310 3309 
3 3315 3313 3310 
3 3309 3317 3314 
3 3318 3317 3319 
3 3309 3311 3320 
3 3321 3320 3311 
3 3321 3319 3320 
3 3320 3319 3317 
3 3320 3317 3309 
3 1232 3322 1069 
3 3322 3313 3315 
3 3323 3324 3316 
3 3322 3324 1069 
3 3318 3319 3325 
3 3326 3325 3319 
3 3326 3327 3325 
3 3328 3325 3327 
3 3328 3318 3325 
3 3329 3330 3318 
3 3329 3314 3330 
3 3317 3318 3330 
3 3317 3330 3314 
3 3331 3332 3333 
3 3333 3324 3323 
3 3333 1069 3324 
3 1070 3334 3332 
3 1070 1069 3334 
3 3333 3332 3334 
3 3333 3334 1069 
3 3335 3331 3333 
3 3335 3333 3323 
3 3265 3332 3237 
3 3332 3331 3237 
3 3336 3323 3337 
3 3335 3323 3336 
3 3335 3336 3338 
3 3336 3337 3339 
3 3336 3339 3229 
3 3231 3339 3337 
3 3231 3229 3339 
3 3316 3314 3340 
3 3329 3340 3314 
3 3329 3337 3340 
3 3323 3340 3337 
3 3323 3316 3340 
3 1067 1066 3265 
3 1067 3265 3263 
3 1077 1067 991 
3 1077 1065 1067 
3 3265 1066 3341 
3 3265 3341 3332 
3 1070 3341 1066 
3 1070 3332 3341 
3 1071 1070 1066 
3 1071 1068 1070 
3 1078 1071 1065 
3 1078 1072 1071 
3 1074 3266 3287 
3 1074 1076 3266 
3 3289 1075 3287 
3 1074 3287 1075 
3 1227 1229 3342 
3 1233 3342 1229 
3 1233 1072 3342 
3 1073 3343 1072 
3 3342 1072 3343 
3 3342 3343 1227 
3 3344 1227 3343 
3 1074 1073 1078 
3 1074 1078 1076 
3 1039 3303 3345 
3 1039 3345 1079 
3 1096 1079 3345 
3 3203 3205 3346 
3 3192 3203 3346 
3 3192 3346 3193 
3 3300 3347 3301 
3 3346 3205 3347 
3 3346 3347 3300 
3 3194 3348 3300 
3 3194 3193 3348 
3 3346 3300 3348 
3 3346 3348 3193 
3 117 3349 1080 
3 3347 3349 3301 
3 3347 1080 3349 
3 1094 3349 117 
3 1094 3301 3349 
3 3206 3350 3205 
3 3206 1080 3350 
3 3347 3205 3350 
3 3347 3350 1080 
3 1089 1086 1087 
3 1089 1005 1086 
3 1139 3289 3286 
3 3284 3286 3289 
3 3308 3351 3352 
3 3308 3352 3353 
3 3353 1140 3354 
3 1139 3354 1140 
3 1139 3286 3354 
3 3308 3353 3354 
3 3308 3354 3286 
3 1095 1096 1093 
3 1093 3345 3303 
3 1093 1096 3345 
3 1099 1097 1096 
3 1099 1098 1097 
3 1104 3355 3356 
3 3307 3306 3356 
3 3307 3356 3355 
3 3307 3355 1403 
3 3307 1403 1195 
3 1105 3356 3306 
3 1105 1104 3356 
3 1176 1189 3357 
3 3357 1403 3355 
3 3357 3358 1403 
3 1106 1105 3306 
3 1106 111 1105 
3 1109 1063 1107 
3 1192 1107 1063 
3 1126 1124 1121 
3 1124 1126 1123 
3 132 134 1132 
3 1133 1132 134 
3 1133 134 1136 
3 1133 1136 1134 
3 1137 1136 134 
3 1228 3359 3360 
3 1228 1227 3359 
3 3359 1227 3344 
3 3359 3344 3361 
3 3362 3359 3361 
3 3362 3360 3359 
3 1141 3363 1075 
3 3344 3363 3361 
3 3289 1139 3364 
3 3289 3364 1075 
3 1141 3364 1139 
3 1141 1075 3364 
3 3362 3365 3366 
3 3362 3361 3365 
3 3365 3361 3363 
3 1122 3367 1151 
3 1122 1151 1127 
3 3367 1122 1315 
3 3367 1341 3368 
3 3367 3368 1151 
3 1152 1151 3368 
3 1150 3368 1341 
3 1150 1152 3368 
3 3210 3369 3370 
3 3273 3214 3370 
3 3370 3211 3210 
3 3370 3214 3211 
3 3210 3212 3371 
3 3231 3372 3371 
3 3210 3373 3369 
3 3328 3373 3372 
3 3373 3371 3372 
3 3373 3210 3371 
3 3328 3372 3374 
3 3328 3374 3318 
3 3329 3374 3372 
3 3329 3318 3374 
3 3328 3327 3375 
3 3376 3369 3375 
3 3375 3373 3328 
3 3375 3369 3373 
3 3230 3231 3212 
3 3371 3212 3231 
3 3231 3337 3377 
3 3231 3377 3372 
3 3329 3377 3337 
3 3329 3372 3377 
3 3273 3378 3379 
3 3270 3268 3379 
3 3379 3272 3273 
3 3379 3268 3272 
3 3273 3380 3378 
3 3376 3380 3369 
3 3380 3370 3369 
3 3380 3273 3370 
3 3381 3379 3378 
3 3381 3270 3379 
3 1156 3269 3270 
3 1156 1157 3269 
3 3382 3383 3384 
3 3376 3385 3386 
3 3383 3385 3327 
3 3385 3375 3327 
3 3385 3376 3375 
3 3376 3386 3387 
3 3381 3378 3387 
3 3387 3380 3376 
3 3387 3378 3380 
3 3381 1158 3388 
3 3381 3388 3270 
3 1156 3388 1158 
3 1156 3270 3388 
3 3381 3389 1158 
3 3390 1158 3389 
3 3387 3386 3389 
3 3387 3389 3381 
3 3391 3390 3392 
3 3391 3392 3386 
3 3389 3392 3390 
3 3389 3386 3392 
3 3390 3393 1158 
3 1236 3393 3394 
3 3390 3391 3395 
3 3396 3394 3395 
3 3395 3394 3393 
3 3395 3393 3390 
3 3206 1155 1080 
3 3206 1157 1155 
3 1155 1156 1159 
3 1155 1159 115 
3 1159 1158 3397 
3 1159 3397 1160 
3 1236 1160 3397 
3 1237 116 1160 
3 1237 119 116 
3 1161 1162 3398 
3 1161 3398 1164 
3 1167 3398 1162 
3 1167 1164 3398 
3 1164 1234 3399 
3 1244 3399 1234 
3 1244 1169 3399 
3 1163 1164 3399 
3 1163 3399 1169 
3 120 1185 1187 
3 1188 1186 3400 
3 3401 3400 1186 
3 3402 3400 3403 
3 3402 1188 3400 
3 3402 3358 3404 
3 3402 3404 1188 
3 1187 1188 3405 
3 1187 3405 120 
3 3405 121 120 
3 3405 1189 121 
3 3357 1189 3358 
3 3404 3358 1189 
3 3405 3404 1189 
3 3405 1188 3404 
3 121 1176 1183 
3 1178 1183 1176 
3 1104 3406 3355 
3 1104 1176 3406 
3 3357 3355 3406 
3 3357 3406 1176 
3 1406 1197 3407 
3 1406 1196 1197 
3 3402 3408 3409 
3 3402 3409 3358 
3 955 3410 951 
3 955 954 3410 
3 1003 3411 954 
3 1003 1199 3411 
3 3411 3410 954 
3 3411 2960 3410 
3 1200 951 2960 
3 3410 2960 951 
3 1198 3411 1199 
3 1198 2960 3411 
3 147 1115 1209 
3 1213 1210 1214 
3 1213 1214 1211 
3 1251 1213 1212 
3 1251 1209 1213 
3 3362 3412 1330 
3 3362 1330 3360 
3 3413 3414 3366 
3 3362 3366 3415 
3 3362 3415 3412 
3 3414 3415 3366 
3 3414 3412 3415 
3 3353 3416 1140 
3 3417 3416 1216 
3 3417 1140 3416 
3 1223 3413 3418 
3 3417 1216 3418 
3 1217 1216 3416 
3 3352 1217 3416 
3 3352 3416 3353 
3 1223 1219 3413 
3 1223 1220 1219 
3 1215 1223 3418 
3 1215 3418 1216 
3 1217 1138 1224 
3 1226 1224 1138 
3 1215 1217 1224 
3 1138 1217 3352 
3 1228 3419 1229 
3 1230 3419 1430 
3 1230 1229 3419 
3 1329 1430 3419 
3 3360 3419 1228 
3 1330 1329 3360 
3 3419 3360 1329 
3 3312 3420 3421 
3 3422 3421 3420 
3 3422 3311 3421 
3 3310 3312 3421 
3 3310 3421 3311 
3 3312 3313 3423 
3 1232 1231 3423 
3 3312 3424 3420 
3 1230 3424 1231 
3 3423 1231 3425 
3 3423 3425 3312 
3 3424 3425 1231 
3 3424 3312 3425 
3 1230 1430 3426 
3 1429 3426 1430 
3 1429 3420 3426 
3 3426 3424 1230 
3 3426 3420 3424 
3 3322 1232 3423 
3 3322 3423 3313 
3 1233 1232 1068 
3 1233 1231 1232 
3 3365 1140 3417 
3 3365 3417 3366 
3 3326 3383 3327 
3 3326 3384 3383 
3 3427 3428 3429 
3 3396 3430 3394 
3 3429 3431 3396 
3 3430 3396 3431 
3 3430 3431 3432 
3 3395 3391 3433 
3 3395 3433 3396 
3 3429 3434 3427 
3 3429 3396 3434 
3 3434 3396 3433 
3 3434 3433 3435 
3 1352 3427 3434 
3 3382 3436 3391 
3 3433 3391 3436 
3 3433 3436 3435 
3 3382 3384 3437 
3 3438 3437 3384 
3 3438 1353 3437 
3 3393 1236 3397 
3 3393 3397 1158 
3 1237 1236 1238 
3 3430 3432 3439 
3 3439 1235 1238 
3 1237 1235 3440 
3 1237 3440 119 
3 1167 3440 1235 
3 1167 119 3440 
3 1241 2962 3441 
3 1241 3441 1242 
3 3442 3441 2962 
3 3442 1242 3441 
3 3443 3444 3432 
3 3439 3444 1243 
3 3439 3432 3444 
3 3443 2962 3445 
3 2961 3445 2962 
3 2961 1243 3445 
3 3445 3444 3443 
3 3445 1243 3444 
3 3443 3432 3446 
3 3429 3428 3446 
3 3447 3446 3428 
3 2962 3443 3448 
3 3447 3449 3448 
3 3442 3448 3449 
3 3442 2962 3448 
3 3450 3451 3452 
3 3447 3428 3452 
3 3442 3449 3453 
3 3454 1291 3449 
3 3453 3449 1291 
3 1287 3455 1293 
3 3453 3455 3442 
3 3453 1293 3455 
3 1242 3455 1287 
3 1242 3442 3455 
3 1246 1248 3456 
3 1246 3456 1245 
3 1392 3456 1248 
3 1246 1194 1247 
3 1406 1247 1194 
3 1245 1307 3457 
3 1245 3457 1304 
3 1302 3457 1307 
3 1302 1304 3457 
3 133 1253 3458 
3 133 3458 134 
3 1137 3458 1253 
3 1137 134 3458 
3 1332 1276 1282 
3 1332 1218 1276 
3 1281 1280 3459 
3 1281 3459 1278 
3 1285 3459 1280 
3 1285 1278 3459 
3 1288 1290 3460 
3 1288 3460 1360 
3 1361 3460 1290 
3 1361 1360 3460 
3 1288 1360 3461 
3 1288 3461 1297 
3 1383 3461 1360 
3 1383 1297 3461 
3 1289 1288 1296 
3 1289 1296 1184 
3 1287 1293 1290 
3 1361 1290 1293 
3 1292 3453 1291 
3 1292 1293 3453 
3 1294 1361 1293 
3 3462 3463 3451 
3 1291 3454 3464 
3 3463 151 3464 
3 153 3464 151 
3 153 1291 3464 
3 3465 3403 3466 
3 3401 3467 3466 
3 3468 3467 3401 
3 1298 3469 1186 
3 1298 3470 3469 
3 3401 1186 3469 
3 3401 3469 3470 
3 3471 3466 3467 
3 3471 3465 3466 
3 1402 3472 3473 
3 3474 3408 3473 
3 3465 1402 3475 
3 3473 3475 1402 
3 3473 3408 3475 
3 3475 3403 3465 
3 3475 3408 3403 
3 3402 3403 3408 
3 1296 1297 1298 
3 1296 1298 1185 
3 1298 1297 3470 
3 1301 3470 1297 
3 1300 1413 3476 
3 3468 3476 1413 
3 1301 1300 3476 
3 1301 3476 3470 
3 1341 3367 3477 
3 1315 3477 3367 
3 3477 1318 1341 
3 3477 1311 1318 
3 1319 1341 1318 
3 1325 1324 1332 
3 1325 1332 1282 
3 3478 3479 3480 
3 3478 3480 1515 
3 3481 3480 3479 
3 3481 1515 3480 
3 3478 3482 3483 
3 3478 3483 3479 
3 3321 3483 3482 
3 3321 3479 3483 
3 3478 1515 3484 
3 3478 3484 3485 
3 1512 3484 1515 
3 3478 3485 3486 
3 3478 3486 3482 
3 3438 3486 3485 
3 3438 3482 3486 
3 3321 3482 3487 
3 3321 3487 3319 
3 3326 3487 3482 
3 3326 3319 3487 
3 3321 3311 3488 
3 3321 3488 3479 
3 3422 3488 3311 
3 3422 3479 3488 
3 3326 3482 3489 
3 3326 3489 3384 
3 3438 3489 3482 
3 3438 3384 3489 
3 3438 3485 3490 
3 3438 3490 1353 
3 3491 3490 3485 
3 2964 3492 2963 
3 2964 3412 3492 
3 3414 2963 3492 
3 3414 3492 3412 
3 1219 3493 3413 
3 3414 3493 2963 
3 3414 3413 3493 
3 1221 2963 3493 
3 1221 3493 1219 
3 2964 3494 3495 
3 2964 3495 3412 
3 1334 1331 3494 
3 3495 3494 1331 
3 1330 3495 1331 
3 1330 3412 3495 
3 1329 3496 1430 
3 1428 3496 1333 
3 1428 1430 3496 
3 1331 1333 3496 
3 1331 3496 1329 
3 1340 3497 3498 
3 1334 3494 1536 
3 3498 1536 3494 
3 1535 1334 1536 
3 1535 1333 1334 
3 1333 3499 1428 
3 3500 1428 3499 
3 1535 3499 1333 
3 1336 3501 3502 
3 1336 3502 1337 
3 1545 3502 3501 
3 1545 1337 3502 
3 1336 1536 3503 
3 1336 3503 3501 
3 3498 3503 1536 
3 3498 3497 3503 
3 3497 1338 3504 
3 1511 3504 1338 
3 1511 3501 3504 
3 3503 3497 3504 
3 3503 3504 3501 
3 1340 1339 3497 
3 1338 3497 1339 
3 2964 1340 3498 
3 2964 3498 3494 
3 1349 3505 1350 
3 3506 3507 3508 
3 3505 1349 3508 
3 3505 3508 3507 
3 1351 1350 3509 
3 3450 3509 1350 
3 3450 3427 3509 
3 1352 3509 3427 
3 1352 1351 3509 
3 1351 1353 3491 
3 1351 3491 1349 
3 1352 3510 1353 
3 3437 3510 3435 
3 3437 1353 3510 
3 3434 3435 3510 
3 3434 3510 1352 
3 3427 3450 3428 
3 3452 3428 3450 
3 3450 1350 3511 
3 3450 3511 3451 
3 1597 1357 3512 
3 3462 3512 1357 
3 3462 3513 3512 
3 1596 1597 3512 
3 3505 3513 3511 
3 3505 3511 1350 
3 3462 3511 3513 
3 3462 3451 3511 
3 1354 3514 1355 
3 1357 1597 3515 
3 1357 3515 1354 
3 3514 3515 1597 
3 3514 1354 3515 
3 3514 1597 1595 
3 3514 1595 1594 
3 3452 3516 3454 
3 3452 3451 3516 
3 3463 3516 3451 
3 1357 3463 3462 
3 1357 151 3463 
3 1358 1356 3517 
3 1358 3517 1440 
3 3518 1440 3517 
3 152 151 3519 
3 152 3519 154 
3 1357 3519 151 
3 1357 154 3519 
3 1383 1365 1364 
3 1383 1360 1365 
3 1376 1726 3520 
3 1376 3520 1604 
3 1379 1615 3521 
3 1616 3521 1615 
3 1376 3522 1726 
3 1376 1379 3522 
3 3521 1726 3522 
3 3521 3522 1379 
3 1378 3523 3524 
3 1378 3524 1380 
3 1381 1380 3524 
3 1414 3525 1409 
3 1470 1409 3525 
3 3525 1414 3526 
3 3525 3526 1473 
3 1410 3527 1414 
3 1410 1387 3527 
3 1571 3527 1387 
3 1571 1572 3527 
3 3523 3526 1572 
3 3527 1572 3526 
3 3527 3526 1414 
3 1299 1364 1384 
3 1456 1384 1364 
3 1300 1299 3528 
3 1300 3528 1386 
3 1385 3528 1299 
3 1385 1386 3528 
3 1455 1385 1384 
3 1455 1387 1385 
3 1405 1390 1248 
3 1405 1388 1390 
3 1392 175 3456 
3 1307 3456 175 
3 1307 1245 3456 
3 1395 1393 1388 
3 1395 1467 1393 
3 1395 1396 3529 
3 1395 3529 1467 
3 1466 3529 1396 
3 1466 1467 3529 
3 1397 3530 1398 
3 3531 1398 3530 
3 3530 1397 3532 
3 1402 3532 1397 
3 1402 3465 3532 
3 3471 3530 3532 
3 3471 3532 3465 
3 1400 1462 3533 
3 202 3533 1462 
3 202 1466 3533 
3 1400 3534 1401 
3 1396 3534 1466 
3 1396 1401 3534 
3 1396 3535 1401 
3 1402 3535 3472 
3 1402 1401 3535 
3 1394 3536 1396 
3 1394 3537 3536 
3 3536 3535 1396 
3 3536 3472 3535 
3 3536 3537 3472 
3 3538 3472 3537 
3 3538 3474 3473 
3 3538 3473 3472 
3 1404 3538 1197 
3 1404 3474 3538 
3 3407 1197 3538 
3 1403 3358 3409 
3 1403 3409 1404 
3 3409 3408 3474 
3 3409 3474 1404 
3 1394 1405 3539 
3 1394 3539 3537 
3 3538 3537 3407 
3 3539 3407 3537 
3 1248 1247 3539 
3 1248 3539 1405 
3 1406 3407 1247 
3 3539 1247 3407 
3 2957 3540 1407 
3 2957 2956 3540 
3 1469 3541 2956 
3 3540 2956 3541 
3 1458 3542 1643 
3 1458 1460 3542 
3 3542 1469 2956 
3 3542 1460 1469 
3 3531 3541 1469 
3 3531 3543 3541 
3 3544 3543 3545 
3 3531 3545 3543 
3 3531 3530 3545 
3 3471 3545 3530 
3 3471 3544 3545 
3 3468 3544 3467 
3 3471 3467 3544 
3 1415 3546 1413 
3 3468 3546 3544 
3 3468 1413 3546 
3 1408 3547 1415 
3 1408 1407 3547 
3 3540 3547 1407 
3 3544 3548 3543 
3 3547 3543 3548 
3 3547 3548 1415 
3 3546 3548 3544 
3 3546 1415 3548 
3 1410 1414 1411 
3 3422 3420 3549 
3 3422 3549 3550 
3 1429 3549 3420 
3 1429 3550 3549 
3 3422 3550 3551 
3 3422 3551 3479 
3 3481 3551 3550 
3 3481 3479 3551 
3 3500 3552 3553 
3 3553 3554 3555 
3 3556 3554 3557 
3 3556 3555 3554 
3 3552 3554 3553 
3 3552 3499 3558 
3 3481 3553 3559 
3 3481 3559 1515 
3 1516 1515 3559 
3 1429 1428 3500 
3 1429 3500 3550 
3 3499 3552 3500 
3 3481 3560 3553 
3 3481 3550 3560 
3 3500 3553 3560 
3 3500 3560 3550 
3 1451 1454 1453 
3 1451 1453 1450 
3 1455 1384 3561 
3 1455 3561 1454 
3 1456 3561 1384 
3 1456 1454 3561 
3 1463 1462 1459 
3 1464 1459 1462 
3 3531 1469 3562 
3 3531 3562 1398 
3 1464 3562 1469 
3 1464 1398 3562 
3 3525 1473 1472 
3 3525 1472 1470 
3 1470 1471 3563 
3 1470 3563 1407 
3 2957 3563 1471 
3 2957 1407 3563 
3 1378 1473 3523 
3 3526 3523 1473 
3 1375 1473 1378 
3 1273 1268 1531 
3 1273 1531 1490 
3 1493 1492 1500 
3 1493 1500 1496 
3 1573 3564 1508 
3 1573 1583 3564 
3 1507 1508 3564 
3 1507 3565 1539 
3 1547 3565 1583 
3 1547 1539 3565 
3 3564 1583 3565 
3 3564 3565 1507 
3 1511 3566 3501 
3 1545 3566 1539 
3 1545 3501 3566 
3 1538 3566 1511 
3 1538 1539 3566 
3 3556 3557 3567 
3 1652 3567 3557 
3 3556 3567 3568 
3 3556 3568 3569 
3 3570 3568 3567 
3 3570 3569 3568 
3 3556 3569 1513 
3 3556 1513 3555 
3 3490 3491 1353 
3 3491 3485 3571 
3 1512 1514 3571 
3 3491 3572 1349 
3 3506 3572 1514 
3 3571 1514 3572 
3 3571 3572 3491 
3 3571 3484 1512 
3 3571 3485 3484 
3 3573 1513 3569 
3 3573 1514 1513 
3 1513 1512 1516 
3 1513 1516 3555 
3 3573 3569 1587 
3 3570 1587 3569 
3 3573 1587 3574 
3 1584 3574 1587 
3 3573 3574 3506 
3 3573 3506 1514 
3 3555 3559 3553 
3 3555 1516 3559 
3 3575 3567 3576 
3 3575 3576 1654 
3 1652 3576 3567 
3 1652 1654 3576 
3 3518 3577 3578 
3 1356 1355 3577 
3 3577 3517 1356 
3 3577 3518 3517 
3 3577 1355 3579 
3 3580 3579 1355 
3 3518 3578 3581 
3 3582 1436 3581 
3 1436 1438 3583 
3 1440 3583 1438 
3 1440 3518 3583 
3 3583 3581 1436 
3 3583 3518 3581 
3 1523 1526 1522 
3 1489 1522 1526 
3 1525 1524 1526 
3 1528 1526 1524 
3 1523 1503 3584 
3 1523 3584 1527 
3 1578 3584 1503 
3 1578 1527 3584 
3 3572 3508 1349 
3 3572 3506 3508 
3 1584 3585 3574 
3 1584 1593 3585 
3 3507 3586 1596 
3 3585 3586 3574 
3 3585 1596 3586 
3 3506 3574 3586 
3 3506 3586 3507 
3 1537 1335 3587 
3 1537 3587 1535 
3 3499 1535 3587 
3 3558 3587 1335 
3 3558 3499 3587 
3 1652 3588 1335 
3 3558 1335 3588 
3 3558 3588 3557 
3 1335 1337 1653 
3 1335 1653 1652 
3 1652 3557 3588 
3 1655 1542 1544 
3 1655 1540 1542 
3 1542 1541 1547 
3 1542 1547 1543 
3 1547 1583 3589 
3 1547 3589 1543 
3 1704 1543 3589 
3 1653 1546 1540 
3 1653 1337 1546 
3 1556 1548 3590 
3 1436 3590 1548 
3 1436 3582 3590 
3 1598 1556 3590 
3 1598 3590 3582 
3 3591 3578 3592 
3 3577 3592 3578 
3 3577 3579 3592 
3 3592 3579 3593 
3 3592 3593 1669 
3 3594 3593 3579 
3 3594 1669 3593 
3 1659 3595 1668 
3 1659 1658 3595 
3 3591 3595 1658 
3 1669 1668 3595 
3 3592 1669 3596 
3 3592 3596 3591 
3 3595 3596 1669 
3 3595 3591 3596 
3 1658 3582 3578 
3 3581 3578 3582 
3 3591 1658 3578 
3 1659 3597 1670 
3 1659 1668 3597 
3 1665 3598 1666 
3 3597 1666 3598 
3 3597 3598 1670 
3 3580 1355 3514 
3 3580 3514 1594 
3 1592 3599 1594 
3 3580 1594 3599 
3 3580 3599 3594 
3 3580 3594 3579 
3 1667 1669 3600 
3 3594 3600 1669 
3 1591 3601 3599 
3 1591 3600 3601 
3 3594 3599 3601 
3 3594 3601 3600 
3 1481 3602 2956 
3 3542 2956 3602 
3 3542 3602 1643 
3 3602 1481 1644 
